541 541 541 541 541 541 541 544 545 547 547 547 547 547 547 547 547 547 547 547 547 547 547 547 547 547 547 547 547 547 547 547 547 547 547 547 547 547 547 547 547 547 547 547 547 547 547 547 547 547 547 547 256 258 258 258 258 258 258 258 258 258 258 258 259 259 259 259 259 259 259 259 259 259 260 260 260 260 260 260 261 261 261 262 262 262 263 263 263 263 263 263 263 264 264 264 264 264 264 264 264 264 265 265 265 265 265 266 269 272 276 280 282 283 283 284 284 284 284 284 284 285 286 286 286 286 286 287 287 287 287 288 289 290 292 293 294 295 295 295 295 295 295 295 296 296 296 296 296 296 296 296 296 296 296 296 296 297 297 297 297 297 297 297 297 297 298 298 296 322 322 322 322 322 322 322 322 322 322 322 322 322 323 323 324 325 325 326 327 327 328 328 328 329 329 330 331 331 331 332 332 333 333 334 334 334 334 334 334 334 334 334 334 334 334 334 334 334 334 334 334 334 334 334 334 334 334 334 334 334 334 334 334 334 334 334 334 334 334 334 334 334 334 334 334 334 334 334 334 334 334 334 334 334 334 334 334 334 334 334 334 334 334 334 334 334 334 334 334 334 334 334 334 334 334 334 335 335 335 335 335 335 335 335 335 335 335 335 335 335 335 335 335 389 389 389 389 390 390 390 390 390 390 390 390 391 391 391 391 391 391 391 392 393 393 394 394 395 396 396 396 396 396 396 396 396 396 396 396 396 396 396 396 396 396 396 396 396 396 396 396 396 396 396 396 396 396 396 395 395 395 395 395 395 395 395 395 395 395 394 394 394 394 394 394 394 394 394 394 394 394 393 393 393 393 393 393 393 393 393 393 393 393 393 393 393 393 393 393 393 393 393 393 393 392 392 392 392 392 392 391 391 391 391 391 391 391 391 391 391 391 391 391 391 391 391 391 391 391 391 391 391 391 391 391 391 391 391 391 391 391 391 391 391 391 391 391 391 391 391 391 391 391 391 391 391 391 391 391 391 391 391 391 391 391 391 391 391 391 391 391 391 391 391 391 391 391 391 391 391 391 391 391 391 391 391 392 392 392 392 392 392 392 392 392 392 392 392 392 392 392 392 392 392 392 392 392 392 392 393 393 393 393 393 394 394 394 395 395 395 396 397 398 399 400 400 400 400 400 400 400 400 400 400 400 400 400 400 400 400 400 400 400 400 400 400 399 398 398 398 397 397 397 396 396 396 395 395 395 395 395 395 395 395 395 395 395 395 395 395 395 395 395 395 395 395 395 395 395 395 395 395 395 394 394 394 394 394 394 394 393 391 391 391 390 391 391 391 391 391 391 391 391 391 391 391 391 391 391 391 391 391 391 391 391 391 391 391 391 391 391 391 391 391 391 391 391 391 391 392 392 392 392 392 392 392 392 392 392 392 392 392 392 392 392 392 392 392 392 392 392 392 392 392 392 392 392 392 392 392 392 392 392 392 392 392 392 392 392 392 392 392 392 392 392 392 392 392 392 392 392 392 392 392 392 392 392 392 393 393 393 393 393 393 393 393 393 393 393 393 393 393 393 393 393 393 393 393 393 393 393 393 393 393 393 393 393 393 393 392 391 391 390 390 390 389 389 389 389 389 389 389 389 389 389 389 389 389 389 389 389 389 389 389 389 389 389 389 389 389 389 389 389 389 388 388 388
545 545 545 545 545 545 545 545 545 547 547 547 547 547 547 547 547 547 547 547 547 547 547 547 547 547 547 547 547 547 547 547 547 547 547 547 547 547 547 547 547 547 547 547 547 547 547 547 547 547 547 547 256 258 258 258 258 258 258 258 258 258 258 258 259 259 259 259 259 259 259 259 259 259 260 260 260 260 260 260 261 261 261 262 262 262 263 263 263 263 263 263 263 264 264 264 264 264 264 264 264 264 265 265 265 265 266 267 271 275 278 281 283 283 283 284 284 284 284 284 284 285 286 286 286 286 286 287 287 287 287 287 288 289 291 292 294 295 295 295 295 295 295 295 296 296 296 296 296 296 296 296 296 296 296 296 296 298 298 298 298 298 298 298 298 298 299 299 320 321 321 321 321 321 321 321 321 322 322 322 322 322 323 323 324 325 325 326 327 327 328 328 328 329 329 330 331 331 331 332 332 333 333 334 334 334 334 334 334 334 334 334 334 334 334 334 334 334 334 334 334 334 334 334 334 334 334 334 334 334 334 334 334 334 334 334 334 334 334 334 334 334 334 334 334 334 334 334 334 334 334 334 334 334 334 334 334 334 334 334 334 334 334 334 334 334 334 334 334 334 334 334 334 334 334 334 335 335 335 335 335 335 335 335 335 335 335 335 335 335 335 335 335 389 389 389 389 390 390 390 390 390 390 390 390 391 391 391 391 391 391 391 392 392 393 394 394 394 395 396 396 396 396 396 396 396 396 396 396 396 396 396 396 396 396 396 396 396 396 396 396 396 396 396 395 395 395 395 395 395 395 395 395 395 395 395 395 395 395 394 394 394 394 394 394 394 394 394 394 394 394 393 393 393 393 393 393 393 393 393 393 393 393 393 393 393 393 393 393 393 393 393 393 393 392 392 392 392 392 392 391 391 391 391 391 391 391 391 391 391 391 391 391 391 391 391 391 391 391 391 391 391 391 391 391 391 391 391 391 391 391 391 391 391 391 391 391 391 391 391 391 391 391 391 391 391 391 391 391 391 391 391 391 391 391 391 391 391 391 391 391 391 391 391 391 391 391 391 391 391 391 391 391 391 391 391 392 392 392 392 392 392 392 392 392 392 392 392 392 392 392 392 392 392 392 392 392 392 392 393 393 393 393 393 394 394 394 395 395 395 396 397 398 399 400 400 400 400 400 400 400 400 400 400 400 400 400 400 400 400 400 400 400 400 400 400 400 399 399 398 397 397 397 396 396 396 396 396 396 396 396 396 396 396 396 396 396 396 396 396 396 396 396 396 396 396 396 396 396 395 395 395 395 395 395 395 395 395 395 395 394 393 392 392 391 391 391 391 391 391 391 391 391 391 391 391 391 391 391 391 391 391 391 391 391 391 391 391 391 391 391 391 391 391 391 391 391 391 391 392 392 392 392 392 392 392 392 392 392 392 392 392 392 392 392 392 392 392 392 392 392 392 392 392 392 392 392 392 392 392 392 392 392 392 392 392 392 392 392 392 392 392 392 392 392 392 392 392 392 392 392 392 392 392 392 392 392 392 393 393 393 393 393 393 393 393 393 393 393 393 393 393 393 393 393 393 393 393 393 393 393 393 393 393 393 393 393 393 393 392 391 391 390 390 390 389 389 389 389 389 389 389 389 389 389 389 389 389 389 389 389 389 389 389 389 389 389 389 389 389 389 389 389 389 388 388 388
545 545 545 545 545 545 545 545 545 547 547 547 547 547 547 547 547 547 547 547 547 547 547 547 547 547 547 547 547 547 547 547 547 547 547 547 547 547 547 547 547 547 547 547 547 547 547 547 547 547 547 547 547 258 258 258 258 258 258 258 258 258 258 258 259 259 259 259 259 259 259 259 259 259 260 260 260 260 260 261 261 261 261 262 262 262 263 263 263 263 263 263 263 264 264 264 264 264 264 264 264 264 265 265 265 265 266 268 272 277 279 282 283 283 283 284 284 284 284 284 284 285 285 285 285 285 285 286 286 286 286 287 287 288 290 291 293 295 295 295 295 295 295 295 296 296 296 296 296 296 296 296 296 296 296 296 296 299 299 299 299 299 299 300 300 300 301 302 319 319 319 319 320 320 320 320 320 321 321 321 322 322 323 323 324 325 325 326 327 327 328 328 328 329 329 330 331 331 331 332 332 333 333 334 334 334 334 334 334 334 334 334 334 334 334 334 334 334 334 334 334 334 334 334 334 334 334 334 334 334 334 334 334 334 334 334 334 334 334 334 334 334 334 334 334 334 334 334 334 334 334 334 334 334 334 334 334 334 334 334 334 334 334 334 334 334 334 334 334 334 334 334 334 334 334 334 335 335 335 335 335 335 335 335 335 335 335 335 335 335 335 335 335 389 389 389 389 390 390 390 390 390 390 390 390 391 391 391 391 391 391 391 392 392 393 394 394 394 395 396 396 396 396 396 396 396 396 396 396 396 396 396 396 396 396 396 396 396 396 396 396 396 395 395 395 394 394 394 394 394 394 394 394 394 394 394 394 394 394 394 394 394 394 394 394 394 394 394 394 394 394 393 393 393 393 393 393 393 393 393 393 393 393 393 393 393 393 393 393 393 393 393 393 393 392 392 392 392 392 392 391 391 391 391 391 391 390 390 390 390 390 390 390 390 390 390 390 390 390 390 390 390 390 390 390 390 390 390 390 390 390 390 390 390 390 390 390 390 390 390 390 390 390 390 390 390 390 390 390 390 390 390 390 390 391 391 391 391 391 391 391 391 391 391 391 391 391 391 391 391 391 391 391 391 391 391 392 392 392 392 392 392 392 392 392 392 392 392 392 392 392 392 392 392 392 392 392 392 392 393 393 393 393 393 394 394 394 395 395 395 396 397 398 399 400 400 400 400 400 400 400 400 400 400 400 400 400 400 400 400 400 400 400 400 400 400 400 400 399 399 398 398 398 397 397 397 396 396 396 396 396 396 396 396 396 396 396 396 396 396 396 396 396 396 396 396 396 396 396 395 395 395 395 395 395 395 395 395 395 395 395 394 394 393 391 391 391 392 392 392 392 392 392 392 392 392 392 392 392 392 392 392 392 392 392 392 392 392 392 392 392 392 392 392 392 392 392 392 392 392 392 392 392 392 392 392 392 392 392 392 392 392 392 392 392 392 392 392 392 392 392 392 392 392 392 392 392 392 392 392 392 392 392 392 392 392 392 392 392 392 392 392 392 392 392 392 392 392 392 392 392 392 392 392 392 393 393 393 393 393 393 393 393 393 393 393 393 393 393 393 393 393 393 393 393 393 393 393 393 393 393 393 393 393 393 393 393 393 393 392 391 391 390 390 390 389 389 389 389 389 389 389 389 389 389 389 389 389 389 389 389 389 389 389 389 389 389 389 389 389 389 389 389 389 389 388 388
545 545 545 545 545 545 545 545 545 547 547 547 547 547 547 547 547 547 547 547 547 547 547 547 547 547 547 547 547 547 547 547 547 547 547 547 547 547 547 547 547 547 547 547 547 547 547 547 547 547 547 547 547 258 258 258 258 258 258 258 258 258 258 258 259 259 259 259 259 259 259 259 259 260 260 260 260 260 261 261 261 261 261 262 262 262 263 263 263 263 263 263 263 264 264 264 264 264 264 264 264 264 265 265 265 265 267 269 274 278 280 282 283 283 283 284 284 284 284 284 284 285 285 285 285 285 285 285 285 285 285 286 286 286 288 289 291 294 295 295 295 295 295 295 296 296 296 296 296 296 296 296 296 296 296 296 296 302 302 302 302 302 302 303 303 304 305 308 317 317 317 317 318 318 318 319 319 320 320 320 321 322 323 323 324 325 325 326 327 327 328 328 328 329 329 330 331 331 331 332 332 333 333 334 334 334 334 334 334 334 334 334 334 334 334 334 334 334 334 334 334 334 334 334 334 334 334 334 334 334 334 334 334 334 334 334 334 334 334 334 334 334 334 334 334 334 334 334 334 334 334 334 334 334 334 334 334 334 334 334 334 334 334 334 334 334 334 334 334 334 334 334 334 334 334 334 335 335 335 335 335 335 335 335 335 335 335 335 335 335 385 385 385 385 385 386 386 386 386 386 386 386 387 387 387 389 389 389 389 389 390 390 391 391 392 393 393 393 394 395 396 396 396 396 396 396 396 396 396 396 396 396 396 396 396 396 396 396 396 396 396 396 395 394 394 394 394 394 394 394 394 394 394 394 394 394 394 394 394 394 394 394 394 394 394 394 394 394 394 394 394 393 393 393 393 393 393 393 393 393 393 393 393 393 393 393 393 393 393 393 393 393 393 393 392 392 392 392 392 392 391 391 391 391 391 391 390 390 390 389 389 389 389 389 389 389 389 389 389 389 389 389 389 389 389 389 389 389 389 389 389 389 389 389 389 389 389 389 389 389 389 389 389 390 390 390 390 390 390 390 390 390 390 390 391 391 391 391 391 391 391 391 391 391 391 391 391 391 391 391 391 391 391 391 391 391 392 392 392 392 392 392 392 392 392 392 392 392 392 392 392 392 392 392 392 392 392 392 392 393 393 393 393 393 394 394 394 395 395 395 396 397 398 399 400 400 400 400 400 400 400 400 400 400 400 400 400 400 400 400 400 400 400 400 400 400 400 400 400 400 399 399 399 398 398 398 397 397 397 397 396 396 396 396 396 396 396 396 396 396 396 396 396 396 396 396 396 396 396 395 395 395 395 395 395 395 395 395 395 395 395 395 395 394 392 392 392 393 393 393 393 393 393 393 393 393 393 393 393 393 393 393 393 393 393 393 393 393 393 393 393 393 393 393 393 393 393 393 393 393 393 393 393 393 393 393 393 393 393 393 393 393 393 393 393 393 393 393 393 393 393 393 393 393 393 393 393 393 393 393 393 393 393 393 393 393 393 393 393 393 393 393 393 393 393 393 393 393 393 393 393 393 393 393 393 393 393 393 393 393 393 393 393 393 393 393 393 393 393 393 393 393 393 393 393 393 393 393 393 393 393 393 393 393 393 393 393 393 393 392 391 391 390 390 390 389 389 389 389 389 389 389 389 389 389 389 389 389 389 389 389 389 389 389 389 389 389 389 389 389 389 389 389 389 389 388 388
545 545 545 545 545 545 545 545 545 547 547 547 547 547 547 547 547 547 547 547 547 547 547 547 547 547 547 547 547 547 547 547 547 547 547 547 547 547 547 547 547 547 547 547 547 547 547 547 547 547 547 547 547 258 258 258 258 258 258 258 258 258 258 258 259 259 259 259 259 259 259 259 259 260 260 260 260 260 261 261 261 261 261 262 262 262 263 263 263 263 263 263 263 264 264 264 264 264 264 264 264 264 265 265 266 266 268 270 277 280 281 282 283 283 283 284 284 284 284 284 284 284 284 284 284 284 284 284 284 284 284 285 285 285 286 287 288 294 295 295 295 295 295 295 296 296 296 296 296 296 296 296 296 296 296 296 296 308 308 308 308 308 308 308 308 309 309 311 316 316 316 316 317 317 317 318 319 319 319 320 321 322 323 323 324 325 326 326 327 327 328 328 328 329 329 330 331 331 331 332 332 333 333 334 334 334 334 334 334 334 334 334 334 334 334 334 334 334 334 334 334 334 334 334 334 334 334 334 334 334 334 334 334 334 334 334 334 334 334 334 334 334 334 334 334 334 334 334 334 334 334 334 334 334 334 334 334 334 334 334 334 334 334 334 334 334 334 334 334 334 334 334 334 334 334 334 335 335 335 335 335 335 335 335 335 335 335 335 335 335 385 385 385 385 385 386 386 386 386 386 386 386 387 387 387 388 388 388 388 388 389 390 390 390 391 392 392 392 393 394 395 395 395 395 395 395 395 395 395 395 395 395 395 395 395 395 395 395 395 395 395 395 394 394 394 394 394 394 394 394 394 394 394 394 394 394 394 394 394 394 394 394 394 394 394 394 394 394 394 394 394 393 393 393 393 393 393 393 393 393 393 393 393 393 393 393 393 393 393 393 393 393 393 393 392 392 392 392 392 392 391 391 391 391 390 390 390 389 389 389 389 389 389 389 389 389 389 389 389 389 389 389 389 389 389 389 389 389 389 389 389 389 389 389 389 389 389 389 389 389 389 389 389 390 390 390 390 390 390 390 390 390 390 390 391 391 391 391 391 391 391 391 391 391 391 391 391 391 391 391 391 391 391 391 391 391 392 392 392 392 392 392 392 392 392 392 392 392 392 392 392 392 392 392 392 392 392 392 392 393 393 393 393 393 394 394 394 395 395 395 396 397 398 399 400 400 400 400 400 400 400 400 400 400 400 400 400 400 400 400 400 400 400 400 400 400 400 400 400 400 399 399 399 399 399 399 398 398 398 398 397 397 397 397 397 397 397 397 397 397 397 397 397 397 397 397 397 397 397 395 395 395 395 395 395 395 395 395 395 395 395 395 395 395 393 393 393 394 394 394 394 394 394 394 394 394 394 394 394 394 394 394 394 394 394 394 394 394 394 394 394 394 394 394 394 394 394 394 394 394 394 394 394 394 394 394 394 394 394 394 394 394 394 394 394 394 394 394 394 394 394 394 394 394 394 394 394 394 394 394 394 394 394 394 394 394 394 394 394 394 394 394 394 394 394 394 394 394 394 394 394 394 394 394 394 394 394 394 394 394 394 394 394 394 394 394 394 394 394 394 394 394 394 394 394 394 394 394 394 394 394 394 394 394 393 393 393 393 393 392 391 391 390 390 390 389 389 389 389 389 389 389 389 389 389 389 389 389 389 389 389 389 389 389 389 389 389 389 389 389 389 389 389 389 389 389 389
545 545 545 545 545 545 545 545 545 547 547 547 547 547 547 547 547 547 547 547 547 547 547 547 547 547 547 547 547 547 547 547 547 547 547 547 547 547 547 547 547 547 547 547 547 547 547 547 547 547 547 547 547 258 258 258 258 258 258 258 258 258 258 258 259 259 259 259 259 259 259 260 260 260 260 260 260 260 261 261 261 261 261 262 262 262 263 263 263 263 263 263 263 263 263 263 263 263 264 264 264 264 265 265 267 267 268 269 277 280 281 282 283 283 283 284 284 284 284 284 284 284 284 284 284 284 284 284 284 284 284 285 285 285 286 287 288 294 295 295 295 295 295 295 296 296 296 296 296 296 296 296 296 311 311 311 311 310 310 310 310 310 310 310 310 311 311 312 315 315 315 315 316 317 317 318 319 319 319 320 321 322 323 323 324 325 326 326 327 327 328 328 328 329 329 330 331 331 331 332 332 333 333 334 334 334 334 334 334 334 334 334 334 334 334 334 334 334 334 334 334 334 334 334 334 334 334 334 334 334 334 334 334 334 334 334 334 334 334 334 334 334 334 334 334 334 334 334 334 334 334 334 334 334 334 334 334 334 334 334 334 334 334 334 334 334 334 334 334 334 334 334 334 334 334 334 335 335 335 335 335 335 335 335 335 335 335 335 335 335 385 385 385 385 385 386 386 386 386 386 386 386 387 387 387 388 388 388 388 388 389 390 390 390 391 391 391 392 392 393 394 394 394 394 394 394 394 394 394 394 394 394 394 394 394 394 394 394 394 394 394 394 394 394 394 394 394 394 394 394 394 394 394 394 394 394 394 394 394 394 394 394 394 394 394 394 394 394 394 394 394 393 393 393 393 393 393 393 393 393 393 393 393 393 393 393 393 393 393 393 393 393 393 393 392 392 392 392 392 392 391 391 391 391 390 390 390 389 389 389 389 389 389 389 389 389 389 389 389 389 389 389 389 389 389 389 389 389 389 389 389 389 389 389 389 389 389 389 389 389 389 389 389 390 390 390 390 390 390 390 390 390 390 390 391 391 391 391 391 391 391 391 391 391 391 391 391 391 391 391 391 391 391 391 391 391 392 392 392 392 392 392 392 392 392 392 392 392 392 392 392 392 392 392 392 392 392 392 392 393 393 393 393 393 394 394 394 395 395 395 396 397 398 399 400 400 400 400 400 400 400 400 400 400 400 400 400 400 400 400 400 400 400 400 400 400 400 400 400 400 399 399 399 399 399 399 398 398 398 398 398 398 398 397 397 397 397 397 397 397 397 397 397 397 397 397 397 397 397 395 395 395 395 395 395 395 395 395 395 395 395 395 395 395 394 394 394 395 395 395 395 395 395 395 395 395 395 395 394 394 394 394 394 394 394 394 394 394 394 394 394 394 394 394 394 394 394 394 394 394 394 394 394 394 394 394 394 394 394 394 394 394 394 394 394 394 394 394 394 394 394 394 394 394 394 394 394 394 394 394 394 394 394 394 394 394 394 394 394 394 394 394 394 394 394 394 394 394 394 394 394 394 394 394 394 394 394 394 394 394 394 394 394 394 394 394 394 394 394 394 394 394 394 394 394 394 394 394 394 394 394 394 394 394 394 394 393 393 393 392 391 391 390 390 390 390 389 389 389 389 389 389 389 389 389 389 389 389 389 389 389 389 389 389 389 389 389 389 389 389 389 389 389 389 389 389 389
545 545 545 545 545 545 545 545 545 547 547 547 547 547 547 547 547 547 547 547 547 547 547 547 547 547 547 547 547 547 547 547 547 547 547 547 547 547 547 547 547 547 547 547 547 547 547 547 547 547 547 547 547 258 258 258 258 258 258 258 258 258 258 258 259 259 259 259 259 259 259 260 260 260 260 260 260 261 261 261 261 261 261 262 262 262 263 263 263 263 263 263 263 263 263 263 263 263 264 264 265 265 267 267 269 270 271 272 275 275 275 275 275 275 275 275 275 275 275 275 275 275 275 275 275 275 274 274 274 284 284 285 285 285 286 287 288 294 295 295 295 295 295 295 296 296 296 296 296 310 310 310 310 311 311 311 311 310 310 310 311 311 311 311 311 311 312 313 314 314 314 315 316 317 317 318 319 319 319 320 321 322 323 324 324 325 326 327 327 327 328 328 328 329 329 330 331 331 331 332 332 333 333 334 334 334 334 334 334 334 334 334 334 334 334 334 334 334 334 334 334 334 334 334 334 334 334 334 334 334 334 334 334 334 334 334 334 334 334 334 334 334 334 334 334 334 334 334 334 334 334 334 334 334 334 334 334 334 334 334 334 334 334 334 334 334 334 334 334 334 334 334 334 334 334 334 335 335 335 335 335 335 335 335 335 335 335 335 335 385 385 385 385 385 385 386 386 386 386 386 386 386 387 387 387 388 388 388 388 388 389 390 390 390 391 391 391 392 392 393 394 394 394 394 394 394 394 394 394 394 394 394 394 394 394 394 394 394 394 394 394 394 394 394 394 394 394 394 394 394 394 394 394 394 394 394 394 394 394 394 394 394 394 394 394 394 394 394 394 394 394 393 393 393 393 393 393 393 393 393 393 393 393 393 393 393 393 393 393 393 393 393 393 393 392 392 392 392 392 392 391 391 391 390 390 390 390 389 389 389 389 389 389 389 389 389 389 389 389 389 389 389 389 389 389 389 389 389 389 389 389 389 389 389 389 389 389 389 389 389 389 389 389 390 390 390 390 390 390 390 390 390 390 390 391 391 391 391 391 391 391 391 391 391 391 391 391 391 391 391 391 391 391 391 391 391 392 392 392 392 392 392 392 392 392 392 392 392 392 392 392 392 392 392 392 392 392 392 392 393 393 393 393 393 394 394 394 395 395 395 396 397 398 399 400 400 400 400 400 400 400 400 400 400 400 400 400 400 400 400 400 400 400 400 400 400 400 400 400 400 399 399 399 399 399 399 399 398 398 398 398 398 398 398 397 397 397 397 397 397 397 397 397 397 397 397 397 397 397 395 395 395 395 395 395 395 395 395 395 395 395 395 395 395 395 395 395 395 395 395 395 395 395 395 395 395 395 395 395 395 395 395 394 394 394 394 394 394 394 394 394 394 394 394 394 394 394 394 394 394 394 394 394 394 394 394 394 394 394 394 394 394 394 394 394 394 394 394 394 394 394 394 394 394 394 394 394 394 394 394 394 394 394 394 394 394 394 394 394 394 394 394 394 394 394 394 394 394 394 394 394 394 394 394 394 394 394 394 394 394 394 394 394 394 394 394 394 394 394 394 394 394 394 394 394 394 394 394 394 394 394 394 394 394 394 394 393 393 393 392 391 391 390 390 390 390 390 390 390 390 390 390 390 390 390 390 390 390 390 390 390 390 390 390 390 390 390 390 390 390 390 390 390 390 390 390 390
545 545 545 545 545 545 545 545 545 547 547 547 547 547 547 547 547 547 547 547 547 547 547 547 547 547 547 547 547 547 547 547 547 547 547 547 547 547 547 547 547 547 547 547 547 547 547 547 547 547 547 547 547 258 258 258 258 258 258 258 258 258 258 258 259 259 259 259 259 259 259 260 260 260 260 260 260 261 261 261 261 261 261 262 262 262 263 263 263 263 263 263 263 263 263 263 263 263 264 264 266 267 269 270 271 272 273 273 275 275 275 275 275 275 275 275 275 275 275 275 275 275 275 275 275 275 274 274 274 284 284 285 285 285 286 287 288 294 295 295 295 295 295 295 296 296 296 296 296 310 310 310 310 311 311 311 311 310 310 310 311 311 311 311 311 311 312 313 314 314 314 315 316 317 317 318 319 319 319 320 321 322 323 324 324 325 326 327 327 327 328 328 328 329 329 330 331 331 331 332 332 333 333 334 334 334 334 334 334 334 334 334 334 334 334 334 334 334 334 334 334 334 334 334 334 334 334 334 334 334 334 334 334 334 334 334 334 334 334 334 334 334 334 334 334 334 334 334 334 334 334 334 334 334 334 334 334 334 334 334 334 334 334 334 334 334 334 334 334 334 334 334 334 334 334 334 335 335 335 335 335 335 335 335 335 335 335 335 335 385 385 385 385 385 385 386 386 386 386 386 386 386 387 387 387 388 388 388 388 388 389 390 390 390 391 391 391 392 392 392 393 393 393 394 394 394 394 394 394 394 394 394 394 394 394 394 394 394 394 394 394 394 394 394 394 394 394 394 394 394 394 394 394 394 394 394 394 394 394 394 394 394 394 394 394 394 394 394 394 394 394 393 393 393 393 393 393 393 393 393 393 393 393 393 393 393 393 393 393 393 393 393 393 393 392 392 392 392 392 392 391 391 391 390 390 390 390 389 389 389 389 389 389 389 389 389 389 389 389 389 389 389 389 389 389 389 389 389 389 389 389 389 389 389 389 389 389 389 389 389 389 389 389 390 390 390 390 390 390 390 390 390 390 390 391 391 391 391 391 391 391 391 391 391 391 391 391 391 391 391 391 391 391 391 391 391 392 392 392 392 392 392 392 392 392 392 392 392 392 392 392 392 392 392 392 392 392 392 392 393 393 393 393 393 394 394 394 395 395 395 396 397 398 399 400 400 400 400 400 400 400 400 400 400 400 400 400 400 400 400 400 400 400 400 400 400 400 400 400 400 399 399 399 399 399 399 399 398 398 398 398 398 398 398 397 397 397 397 397 397 397 397 397 397 397 397 397 397 397 395 395 395 395 395 395 395 395 395 395 395 395 395 395 395 395 395 395 395 395 395 395 395 395 395 395 395 395 395 395 395 395 395 395 395 395 395 395 395 394 394 394 394 394 394 394 394 394 394 394 394 394 394 394 394 394 394 394 394 394 394 394 394 394 394 394 394 394 394 394 394 394 394 394 394 394 394 394 394 394 394 394 394 394 394 394 394 394 394 394 394 394 394 394 394 394 394 394 394 394 394 394 394 394 394 394 394 394 394 394 394 394 394 394 394 394 394 394 394 394 394 394 394 394 394 394 394 394 394 394 394 394 394 394 394 394 394 393 393 393 392 391 391 391 390 390 390 390 390 390 390 390 390 390 390 390 390 390 390 390 390 390 390 390 390 390 390 390 390 390 390 390 390 390 390 390 390 390
545 545 545 545 545 545 545 545 545 547 547 547 547 547 547 547 547 547 547 547 547 547 547 547 547 547 547 547 547 547 547 547 547 547 547 547 547 547 547 547 547 547 547 547 547 547 547 547 547 547 547 547 547 258 258 258 258 258 258 258 258 258 258 258 259 259 259 259 259 259 259 260 260 260 260 260 260 261 261 261 261 261 261 262 262 262 263 263 263 263 263 263 263 263 263 263 263 263 264 265 267 268 270 272 272 273 274 274 275 275 275 275 275 275 275 275 275 275 275 275 275 275 275 275 275 275 274 274 274 284 284 285 285 285 286 287 288 294 295 295 295 295 295 309 309 309 309 309 309 310 310 310 310 311 311 311 311 310 310 310 311 311 311 311 311 311 312 313 314 314 314 315 316 317 317 318 319 319 320 320 321 322 323 324 324 325 326 327 327 327 328 328 328 329 329 330 331 331 331 332 332 333 333 334 334 334 334 334 334 334 334 334 334 334 334 334 334 334 334 334 334 334 334 334 334 334 334 334 334 334 334 334 334 334 334 334 334 334 334 334 334 334 334 334 334 334 334 334 334 334 334 334 334 334 334 334 334 334 334 334 334 334 334 334 334 334 334 334 334 334 334 334 334 334 334 334 335 335 335 335 335 335 335 335 335 335 335 335 335 385 385 385 385 385 385 386 386 386 386 386 386 386 387 387 387 388 388 388 388 388 389 390 390 390 391 391 391 392 392 392 392 392 393 393 393 393 393 393 393 393 393 393 393 393 393 393 394 394 394 394 394 394 394 394 394 394 394 394 394 394 394 394 394 394 394 394 394 394 394 394 394 394 394 394 394 394 394 394 394 394 394 393 393 393 393 393 393 393 393 393 393 393 393 393 393 393 393 393 393 393 393 393 393 393 392 392 391 391 391 391 391 391 391 390 390 390 390 389 389 389 389 389 389 389 389 389 389 389 389 389 389 389 389 389 389 389 389 389 389 389 389 389 389 389 389 389 389 389 389 389 389 389 389 390 390 390 390 390 390 390 390 390 390 390 391 391 391 391 391 391 391 391 391 391 391 391 391 391 391 391 391 391 391 391 391 391 392 392 392 392 392 392 392 392 392 392 392 392 392 392 392 392 392 392 392 392 392 392 392 393 393 393 393 393 394 394 394 395 395 395 396 397 398 399 400 400 400 400 400 400 400 400 400 400 400 400 400 400 400 400 400 400 400 400 400 400 400 400 400 400 399 399 399 399 399 399 399 398 398 398 398 398 398 398 397 397 397 397 397 397 397 397 397 397 397 397 397 397 397 397 397 397 397 397 397 397 397 395 395 395 395 395 395 395 395 395 395 395 395 395 395 395 395 395 395 395 395 395 395 395 395 395 395 395 395 395 395 395 395 395 395 395 395 395 395 395 395 395 395 395 395 395 395 395 395 395 395 395 395 395 395 395 395 395 395 395 395 395 395 395 395 395 395 395 395 395 395 395 395 395 395 395 395 395 395 395 395 395 395 395 395 395 395 395 395 395 395 395 395 395 395 395 395 395 395 395 395 395 395 395 395 395 395 395 395 395 395 395 395 395 395 395 395 395 395 395 395 395 395 395 395 395 394 394 394 394 393 393 393 392 392 392 391 391 391 390 390 390 390 390 390 390 390 390 390 390 390 390 390 390 390 390 390 390 390 390 390 390 390 390 390 390 390 390 390 390 390
545 545 545 545 545 545 545 545 545 547 547 547 547 547 547 547 547 547 547 547 547 547 547 547 547 547 547 547 547 547 547 547 547 547 547 547 547 547 547 547 547 547 547 547 547 547 547 547 547 547 547 547 547 258 258 258 258 258 258 258 258 258 258 258 259 259 259 259 259 259 259 260 260 260 260 260 260 261 261 261 261 261 261 262 262 262 263 263 263 263 263 263 263 263 263 263 263 264 265 266 269 270 271 273 273 274 274 274 275 275 275 275 275 275 275 275 275 275 275 275 275 275 275 275 275 275 275 275 275 284 284 285 285 285 286 287 288 294 295 295 295 295 309 309 309 309 309 309 309 310 310 310 310 310 310 310 311 310 310 310 311 311 311 311 311 311 312 313 314 314 314 315 316 317 317 318 319 319 320 320 321 322 323 324 324 325 326 327 327 327 328 328 328 329 329 330 331 331 331 332 332 333 333 334 334 334 334 334 334 334 334 334 334 334 334 334 334 334 334 334 334 334 334 334 334 334 334 334 334 334 334 334 334 334 334 334 334 334 334 334 334 334 334 334 334 334 334 334 334 334 334 334 334 334 334 334 334 334 334 334 334 334 334 334 334 334 334 334 334 334 334 334 334 334 334 334 335 335 335 335 335 335 335 335 335 335 335 335 335 385 385 385 385 385 385 386 386 386 386 386 386 386 387 387 387 388 388 388 388 388 389 390 390 390 391 391 391 392 392 392 392 392 393 393 393 393 393 393 393 393 393 393 393 393 393 393 394 394 394 394 394 394 394 394 394 394 394 394 394 394 394 394 394 394 394 394 394 394 394 394 394 394 394 394 394 394 394 394 394 394 394 393 393 393 393 393 393 393 393 393 393 393 393 393 393 393 393 393 393 393 393 393 393 393 393 392 391 391 391 391 391 391 391 390 390 390 390 389 389 389 389 389 389 389 389 389 389 389 389 389 389 389 389 389 389 389 389 389 389 389 389 389 389 389 389 389 389 389 389 389 389 389 389 390 390 390 390 390 390 390 390 390 390 390 391 391 391 391 391 391 391 391 391 391 391 391 391 391 391 391 391 391 391 391 391 391 392 392 392 392 392 392 392 392 392 392 392 392 392 392 392 392 392 392 392 392 392 392 392 393 393 393 393 393 394 394 394 395 395 395 395 396 397 398 399 400 400 400 400 400 400 400 400 400 400 400 400 400 400 400 400 400 400 400 400 400 400 400 400 400 399 399 399 399 399 399 399 398 398 398 398 398 398 398 397 397 397 397 397 397 397 397 397 397 397 397 397 397 397 397 397 397 397 397 397 397 397 395 395 395 395 395 395 395 395 395 395 395 395 395 395 395 395 395 395 395 395 395 395 395 395 395 395 395 395 395 395 395 395 395 395 395 395 395 395 395 395 395 395 395 395 395 395 395 395 395 395 395 395 395 395 395 395 395 395 395 395 395 395 395 395 395 395 395 395 395 395 395 395 395 395 395 395 395 395 395 395 395 395 395 395 395 395 395 395 395 395 395 395 395 395 395 395 395 395 395 395 395 395 395 395 395 395 395 395 395 395 395 395 395 395 395 395 395 395 395 395 395 395 395 395 395 394 394 394 394 393 393 393 392 392 392 391 391 391 391 390 390 390 390 390 390 390 390 390 390 390 390 390 390 390 390 390 390 390 390 390 390 390 390 390 390 390 390 390 390 390
545 545 545 545 545 545 545 545 545 547 547 547 547 547 547 547 547 547 547 547 547 547 547 547 547 547 547 547 547 547 547 547 547 547 547 547 547 547 547 547 547 547 547 547 547 547 547 547 547 547 547 547 547 547 547 258 258 258 258 258 258 258 258 258 259 259 259 259 259 259 259 260 260 260 260 260 260 261 261 261 261 261 261 262 262 262 263 263 263 263 263 263 263 263 264 264 264 265 266 267 270 271 272 273 274 274 274 274 275 275 275 275 275 275 275 275 275 275 275 275 275 275 275 275 275 275 275 275 275 284 284 285 285 285 286 287 288 294 295 295 295 295 309 309 309 309 309 309 309 310 310 310 310 310 310 310 311 310 310 310 311 311 311 311 311 311 312 313 314 314 314 315 316 317 317 318 319 319 320 320 321 322 323 324 324 325 326 327 327 327 328 328 328 329 329 330 331 331 331 332 332 333 333 334 334 334 334 334 334 334 334 334 334 334 334 334 334 334 334 334 334 334 334 334 334 334 334 334 334 334 334 334 334 334 334 334 334 334 334 334 334 334 334 334 334 334 334 334 334 334 334 334 334 334 334 334 334 334 334 334 334 334 334 334 334 334 334 334 334 334 334 334 334 334 334 334 335 335 335 335 335 335 335 335 335 335 335 335 335 385 385 385 385 385 385 386 386 386 386 386 386 386 387 387 387 388 388 388 388 388 389 390 390 390 391 391 391 392 392 392 392 392 392 392 393 393 393 393 393 393 393 393 393 393 393 393 394 394 394 394 394 394 394 394 394 394 394 394 394 394 394 394 394 394 394 394 394 394 394 394 394 394 394 394 394 394 394 394 394 394 394 393 393 393 393 393 393 393 393 393 393 393 393 393 393 393 394 394 394 394 394 394 394 394 394 393 392 392 392 392 392 391 391 390 390 390 390 389 389 389 389 389 389 389 389 389 389 389 389 389 389 389 389 389 389 389 389 389 389 389 389 389 389 389 389 389 389 389 389 389 389 389 389 390 390 390 390 390 390 390 390 390 390 390 391 391 391 391 391 391 391 391 391 391 391 391 391 391 391 391 391 391 391 391 391 391 392 392 392 392 392 392 392 392 392 392 392 392 392 392 392 392 392 392 392 392 392 392 392 393 393 393 393 393 394 394 394 395 395 395 395 396 397 398 399 400 400 400 400 400 400 400 400 400 400 400 400 400 400 400 400 400 400 400 400 400 400 400 400 400 399 399 399 399 399 399 399 398 398 398 398 398 398 398 397 397 397 397 397 397 397 397 397 397 397 397 396 396 396 396 396 395 395 395 395 395 395 395 395 395 395 395 395 395 395 395 395 395 395 395 395 395 395 395 395 395 395 395 395 395 395 395 395 395 395 396 396 396 396 396 396 396 396 396 396 396 396 396 396 396 396 396 396 396 396 396 396 396 396 396 396 396 396 396 396 396 396 396 396 396 396 396 396 396 396 396 396 396 396 396 396 396 396 396 396 396 396 396 396 396 396 396 396 396 396 396 396 396 396 395 395 395 395 395 395 395 395 395 395 395 395 395 395 395 395 395 395 395 395 395 395 395 395 395 395 395 395 395 395 395 395 395 394 394 394 394 393 393 393 392 392 392 391 391 391 391 390 390 390 390 390 390 390 390 390 390 390 390 390 390 390 390 390 390 390 390 390 390 390 390 390 390 390 390 390 390 390
545 545 545 545 545 545 545 545 545 547 547 547 547 547 547 547 547 547 547 547 547 547 547 547 547 547 547 547 547 547 547 547 547 547 547 547 547 547 547 547 547 547 547 547 547 547 547 547 547 547 547 547 547 547 547 258 258 258 258 258 258 258 258 258 259 259 259 259 259 259 259 260 260 260 260 260 260 261 261 261 261 261 261 262 262 262 263 263 263 263 263 263 264 264 265 265 266 267 268 269 271 272 273 273 274 274 274 274 275 275 275 275 275 275 275 275 275 275 275 275 275 275 275 275 275 275 274 274 275 284 284 285 285 285 286 287 288 294 295 295 295 295 309 309 309 309 309 309 309 310 310 310 310 310 310 310 311 310 310 310 311 311 311 311 311 311 312 313 314 314 314 315 316 317 317 318 319 319 320 320 321 322 323 324 324 325 326 327 327 327 328 328 328 329 329 330 331 331 331 332 332 333 333 334 334 334 334 334 334 334 334 334 334 334 334 334 334 334 334 334 334 334 334 334 334 334 334 334 334 334 334 334 334 334 334 334 334 334 334 334 334 334 334 334 334 334 334 334 334 334 334 334 334 334 334 334 334 334 334 334 334 334 334 334 334 334 334 334 334 334 334 334 334 334 334 334 335 335 335 335 335 335 335 335 335 335 335 335 335 385 385 385 385 385 385 386 386 386 386 386 386 386 387 387 387 388 388 388 388 388 389 390 390 390 391 391 391 392 392 392 392 392 392 392 392 392 393 393 393 393 393 393 393 393 393 393 394 394 394 394 394 394 394 394 394 394 394 394 394 394 394 394 394 394 394 394 394 394 394 394 394 394 394 394 394 394 394 394 394 394 394 394 394 394 394 394 394 394 394 394 394 394 394 394 394 394 395 395 395 395 395 395 395 395 395 394 393 393 393 393 393 392 391 390 390 390 390 389 389 389 389 389 389 389 389 389 389 389 389 389 389 389 389 389 389 389 389 389 389 389 389 389 389 389 389 389 389 389 389 389 389 389 389 390 390 390 390 390 390 390 390 390 390 390 391 391 391 391 391 391 391 391 391 391 391 391 391 391 391 391 391 391 391 391 391 391 392 392 392 392 392 392 392 392 392 392 392 392 392 392 392 392 392 392 392 392 392 392 392 393 393 393 393 393 394 394 394 395 395 395 395 396 397 398 399 400 400 400 400 400 400 400 400 400 400 400 400 400 400 400 400 400 400 400 400 400 400 400 400 400 399 399 399 399 399 399 399 398 398 398 398 398 398 398 397 397 397 397 397 397 397 397 397 397 397 397 396 396 396 396 396 395 395 395 395 395 395 395 395 395 395 395 395 395 395 395 395 395 395 395 395 395 395 395 395 395 395 395 395 395 395 395 395 395 395 396 396 396 396 396 396 396 396 396 396 396 396 396 396 396 396 396 396 396 396 396 396 396 396 396 396 396 396 396 396 396 396 396 396 396 396 396 396 396 396 396 396 396 396 396 396 396 396 396 396 396 396 396 396 396 396 396 396 396 396 396 396 396 396 395 395 395 395 395 395 395 395 395 395 395 395 395 395 395 395 395 395 395 395 395 395 395 395 395 395 395 395 395 395 395 395 395 394 394 394 394 393 393 393 392 392 392 391 391 391 391 391 391 391 390 390 390 390 390 390 390 390 390 390 390 390 390 390 390 390 390 390 390 390 390 390 390 390 390 390 390 390
545 545 545 545 545 545 545 545 545 547 547 547 547 547 547 547 547 547 547 547 547 547 547 547 547 547 547 547 547 547 547 547 547 547 547 547 547 547 547 547 547 547 547 547 547 547 547 547 547 547 547 547 547 547 547 258 258 258 258 258 258 258 258 258 259 259 259 259 259 259 259 260 260 260 260 260 260 261 261 261 261 261 261 262 262 262 263 263 263 264 264 264 264 265 266 266 267 268 269 270 272 272 273 273 274 274 274 274 275 275 275 275 275 275 275 275 275 275 275 275 275 275 275 275 275 275 274 274 275 284 284 285 285 285 286 287 288 294 295 295 295 295 309 309 309 309 309 309 309 310 310 310 310 310 310 310 311 310 310 310 311 311 311 311 311 311 312 313 314 314 314 315 316 317 317 318 319 320 320 320 321 322 323 324 324 325 326 327 327 327 328 328 328 329 329 330 331 331 331 332 332 333 333 334 334 334 334 334 334 334 334 334 334 334 334 334 334 334 334 334 334 334 334 334 334 334 334 334 334 334 334 334 334 334 334 334 334 334 334 334 334 334 333 333 333 333 333 333 333 334 334 334 334 334 334 334 334 334 334 334 334 334 334 334 334 334 334 334 334 334 334 334 334 334 334 334 335 335 335 335 335 335 335 335 335 335 335 335 335 385 385 385 385 385 385 386 386 386 386 386 386 386 387 387 387 388 388 388 388 388 389 390 390 390 391 391 391 392 392 392 392 392 392 392 392 392 392 392 393 393 393 393 393 393 393 393 394 394 394 394 394 394 394 394 394 394 394 394 394 394 394 394 394 394 394 394 394 394 394 394 394 394 394 394 394 394 394 394 394 394 394 394 394 394 394 395 395 395 395 395 395 395 395 395 395 395 396 396 396 396 396 396 396 396 396 395 394 394 394 394 394 393 392 391 390 390 390 389 389 389 389 389 389 389 389 389 389 389 389 389 389 389 389 389 389 389 389 389 389 389 389 389 389 389 389 389 389 389 389 389 389 389 389 390 390 390 390 390 390 390 390 390 390 390 391 391 391 391 391 391 391 391 391 391 391 391 391 391 391 391 391 391 391 391 391 391 392 392 392 392 392 392 392 392 392 392 392 392 392 392 392 392 392 392 392 392 392 392 392 393 393 393 393 393 394 394 394 395 395 395 395 396 397 398 399 400 400 400 400 400 400 400 400 400 400 400 400 400 400 400 400 400 400 400 400 400 400 400 400 400 399 399 399 399 399 399 399 398 398 398 398 398 398 398 397 397 397 397 397 397 397 397 397 397 397 396 396 396 396 396 396 395 395 395 395 395 395 395 395 395 395 395 395 395 395 395 395 395 395 395 395 395 395 395 395 395 395 395 395 395 395 395 395 395 395 396 396 396 396 396 396 396 396 396 396 396 396 396 396 396 396 396 396 396 396 396 396 396 396 396 396 396 396 396 396 396 396 396 396 396 396 396 396 396 396 396 396 396 396 396 396 396 396 396 396 396 396 396 396 396 396 396 396 396 396 396 396 396 396 395 395 395 395 395 395 395 395 395 395 395 395 395 395 395 395 395 395 395 395 395 395 395 395 395 395 395 395 395 395 395 395 395 394 394 394 394 393 393 393 392 392 392 391 391 391 391 391 391 391 390 390 390 390 390 390 390 390 390 390 390 390 390 390 390 390 390 390 390 390 390 390 390 390 390 390 390 390
545 545 545 545 545 545 545 545 545 547 547 547 547 547 547 547 547 547 547 547 547 547 547 547 547 547 547 547 547 547 547 547 547 547 547 547 547 547 547 547 547 547 547 547 547 547 547 547 547 547 547 547 547 547 547 547 258 258 258 258 258 258 258 258 259 259 259 259 259 259 259 260 260 260 260 260 260 261 261 261 261 261 262 262 262 262 263 263 263 264 264 265 265 266 267 267 268 269 270 271 272 272 273 273 274 274 274 274 275 275 275 275 275 275 275 275 275 275 275 275 275 275 275 275 275 275 274 274 274 274 274 285 285 285 286 287 288 294 295 295 295 295 309 309 309 309 309 309 309 310 310 310 310 310 310 310 311 310 310 310 311 311 311 311 311 311 312 313 314 314 314 315 316 317 317 318 319 320 320 320 321 322 323 324 324 325 326 327 327 327 328 328 328 329 329 330 331 331 331 332 332 333 333 334 334 334 334 334 334 334 334 334 334 334 334 334 334 334 334 334 334 334 334 334 334 334 334 334 334 334 334 334 334 334 334 334 334 334 334 333 333 333 332 332 332 332 332 332 332 334 334 334 334 334 334 334 334 334 334 334 334 334 334 334 334 334 334 334 334 334 334 334 334 334 334 334 335 335 335 335 335 335 335 335 335 335 335 335 335 385 385 385 385 385 385 386 386 386 386 386 386 386 387 387 387 388 388 388 388 388 389 390 390 390 391 391 391 392 392 392 392 392 392 392 392 392 392 392 393 393 393 393 393 393 393 393 394 394 394 394 394 394 394 394 394 394 394 394 394 394 394 394 394 394 394 394 394 394 394 394 394 394 394 394 394 394 394 394 394 394 394 394 394 394 394 395 395 395 395 395 395 396 396 396 396 396 397 397 397 397 397 397 397 397 397 396 395 395 395 395 395 394 393 392 391 390 390 389 389 389 389 389 389 389 389 389 389 389 389 389 389 389 389 389 389 389 389 389 389 389 389 389 389 389 389 389 389 389 389 389 389 389 389 390 390 390 390 390 390 390 390 390 390 390 391 391 391 391 391 391 391 391 391 391 391 391 391 391 391 391 391 391 391 391 391 391 392 392 392 392 392 392 392 392 392 392 392 392 392 392 392 392 392 392 392 392 392 392 392 393 393 393 393 393 394 394 394 395 395 395 395 396 397 398 398 399 399 399 399 399 399 400 400 400 400 400 400 400 400 400 400 400 400 400 400 400 400 400 400 400 399 399 399 399 399 399 399 398 398 398 398 398 398 398 397 397 397 397 397 397 396 396 396 396 396 395 395 395 395 395 395 395 395 395 395 395 395 395 395 395 395 395 395 395 395 395 395 395 395 395 395 395 395 395 395 395 395 395 395 395 395 395 395 395 395 396 396 396 396 396 396 396 396 396 396 396 396 396 396 396 396 396 396 396 396 396 396 396 396 396 396 396 396 396 396 396 396 396 396 396 396 396 396 396 396 396 396 396 396 396 396 396 396 396 396 396 396 396 396 396 396 396 396 396 396 396 396 396 396 395 395 395 395 395 395 395 395 395 395 395 395 395 395 395 395 395 395 395 395 395 395 395 395 395 395 395 395 395 395 395 395 395 394 394 394 394 393 393 393 392 392 392 391 391 391 391 391 391 391 390 390 390 390 390 390 390 390 390 390 390 390 390 390 390 390 390 390 390 390 390 390 390 390 390 390 390 390
545 545 545 545 545 545 545 545 545 547 547 547 547 547 547 547 547 547 547 547 547 547 547 547 547 547 547 547 547 547 547 547 547 547 547 547 547 547 547 547 547 547 547 547 547 547 547 547 547 547 547 547 547 547 547 547 258 258 258 258 258 258 258 258 259 259 259 259 259 259 259 260 260 260 260 260 260 261 261 261 261 262 262 262 262 263 263 263 264 264 265 265 266 267 268 268 269 270 271 271 272 272 273 273 274 274 274 274 275 275 275 275 275 275 275 275 275 275 275 275 275 275 275 275 275 275 275 275 275 275 275 275 275 275 275 274 288 294 295 295 295 295 309 309 309 309 309 309 309 310 310 310 310 310 310 310 311 310 310 310 311 311 311 311 311 311 312 313 314 314 314 315 316 317 317 318 319 320 320 320 321 322 323 324 324 325 326 327 327 327 328 328 328 329 329 330 331 331 331 332 332 333 333 334 334 334 334 334 334 334 334 334 334 334 334 334 334 334 334 334 334 334 334 334 334 334 334 334 334 334 334 334 334 334 334 334 333 333 333 332 332 332 331 331 331 331 331 331 331 330 330 330 330 330 330 330 330 330 334 334 334 334 334 334 334 334 334 334 334 334 334 334 334 334 334 334 335 335 335 335 335 335 335 335 335 335 335 335 335 385 385 385 385 385 385 386 387 387 387 387 387 387 387 388 388 388 388 388 388 388 389 390 390 390 391 391 391 392 392 392 392 392 392 392 392 392 392 392 393 393 393 393 393 393 393 393 394 394 394 394 394 394 394 394 394 394 394 394 394 394 394 394 394 394 394 394 394 394 394 394 394 394 394 394 394 394 394 394 394 394 394 394 394 394 395 395 396 396 396 396 396 397 397 397 397 397 397 397 397 397 397 397 397 397 397 397 396 396 396 396 396 395 394 393 392 391 391 390 389 389 389 389 389 389 389 389 389 389 389 389 389 389 389 389 389 389 389 389 389 389 389 389 389 389 389 389 389 389 389 389 389 389 389 390 390 390 390 390 390 390 390 390 390 390 391 391 391 391 391 391 391 391 391 391 391 391 391 391 391 391 391 391 391 391 391 391 392 392 392 392 392 392 392 392 392 392 392 392 392 392 392 392 392 392 392 392 392 392 392 393 393 393 393 393 394 394 395 395 395 395 395 396 397 397 398 398 398 398 398 398 398 399 399 399 399 399 399 399 399 399 399 399 399 399 399 399 399 399 399 399 399 399 399 399 399 399 399 398 398 398 398 398 398 398 397 397 397 397 397 396 396 396 396 396 396 395 395 395 395 395 395 395 395 395 395 395 394 394 394 394 394 394 394 394 394 394 394 395 395 395 395 395 395 395 395 395 395 395 395 395 395 395 395 395 395 396 396 396 396 396 396 396 396 396 396 396 396 396 396 396 396 396 396 396 396 396 396 396 396 396 396 396 396 396 396 396 396 396 396 396 396 396 396 396 396 396 396 396 396 396 396 396 396 396 396 396 396 396 396 396 396 396 396 396 396 396 396 396 396 395 395 395 395 395 395 395 395 395 395 395 395 395 395 395 395 395 395 395 395 395 395 395 395 395 395 395 395 395 395 395 395 395 394 394 394 394 393 393 393 392 392 392 391 391 391 391 391 391 391 390 390 390 390 390 390 390 390 390 390 390 390 390 390 390 390 390 390 390 390 390 390 390 390 390 390 390 390
545 545 545 545 545 545 545 545 545 547 547 547 547 547 547 547 547 547 547 547 547 547 547 547 547 547 547 547 547 547 547 547 547 547 547 547 547 547 547 547 547 547 547 547 547 547 547 547 547 547 547 547 547 547 547 547 547 547 258 258 258 258 258 258 259 259 259 259 259 259 259 260 260 260 260 260 260 261 261 261 261 262 262 262 262 263 263 263 264 264 265 265 266 267 268 269 269 270 271 272 272 272 273 273 274 274 274 274 275 275 275 275 275 275 275 275 275 275 275 275 275 275 275 275 275 276 276 276 276 276 276 276 276 276 276 274 288 294 295 295 309 309 309 309 309 309 309 309 309 310 310 310 310 310 310 310 311 310 310 310 311 311 311 311 311 311 312 313 314 314 314 315 316 317 317 318 319 320 320 320 321 322 323 324 324 325 326 327 327 327 328 328 328 329 329 330 331 331 331 332 332 333 333 334 334 334 334 334 334 334 334 334 334 334 334 334 334 334 334 334 334 334 334 334 334 334 333 333 333 333 333 333 333 333 333 333 332 332 332 331 331 331 331 331 331 331 331 331 331 330 330 330 330 330 330 330 330 330 334 334 334 334 334 334 334 334 334 334 334 334 334 334 334 334 334 334 335 335 335 335 335 335 335 335 335 335 335 335 335 385 385 385 385 385 385 386 387 388 388 388 388 388 388 388 389 389 389 389 389 389 389 390 390 390 391 391 391 392 392 392 392 392 392 392 392 392 392 392 393 393 393 393 393 393 393 393 394 394 394 395 395 395 395 395 395 395 395 395 395 395 395 395 395 395 395 395 395 395 395 395 395 395 395 395 395 395 395 395 395 395 395 395 395 395 396 396 396 396 397 397 397 397 397 397 397 397 397 397 397 397 397 397 397 397 397 397 397 397 397 397 397 396 395 394 393 392 391 390 389 389 389 389 389 389 389 389 389 389 389 389 389 389 389 389 389 389 389 389 389 389 389 389 389 389 389 389 389 389 389 389 389 389 389 390 390 390 390 390 390 390 390 390 390 390 391 391 391 391 391 391 391 391 391 391 391 391 391 391 391 391 391 391 391 391 391 391 392 392 392 392 392 392 392 392 392 392 392 392 392 392 392 392 392 392 392 392 392 392 392 393 393 393 393 393 394 394 395 395 395 395 395 396 397 397 398 398 398 398 398 398 398 398 398 398 399 399 399 399 399 399 399 399 399 399 399 399 399 399 399 399 399 399 399 399 399 399 399 398 398 398 398 398 398 397 397 397 396 396 396 396 396 396 396 396 396 395 395 395 395 395 395 395 395 395 395 395 394 394 394 394 394 394 394 394 394 394 394 395 395 395 395 395 395 395 395 395 395 395 395 395 395 395 395 395 395 396 396 396 396 396 396 396 396 396 396 396 396 396 396 396 396 396 396 396 396 396 396 396 396 396 396 396 396 396 396 396 396 396 396 396 396 396 396 396 396 396 396 396 396 396 396 396 396 396 396 396 396 396 396 396 396 396 396 396 396 396 396 396 396 395 395 395 395 395 395 395 395 395 395 395 395 395 395 395 395 395 395 395 395 395 395 395 395 395 395 395 395 395 395 395 395 395 394 394 394 394 393 393 393 392 392 392 391 391 391 391 391 391 391 390 390 390 390 390 390 390 390 390 390 390 390 390 390 390 390 390 390 390 390 390 390 390 390 390 390 390 390
545 545 545 545 545 545 545 545 545 547 547 547 547 547 547 547 547 547 547 547 547 547 547 547 547 547 547 547 547 547 547 547 547 547 547 547 547 547 547 547 547 547 547 547 547 547 547 547 547 547 547 547 547 547 547 547 547 547 547 547 258 258 258 258 259 259 259 259 259 259 259 260 260 260 260 260 260 261 261 261 261 262 262 262 263 263 264 264 264 265 265 265 266 267 268 269 270 270 271 272 272 272 273 273 274 274 274 274 275 275 275 275 275 275 275 275 275 276 276 276 276 276 276 276 276 277 277 277 277 277 277 277 278 278 278 280 288 294 295 295 309 309 309 309 309 309 309 309 309 310 310 310 310 310 310 310 311 310 310 310 311 311 311 311 311 311 312 313 314 314 314 315 316 317 317 318 319 320 320 320 321 322 323 324 324 325 326 327 327 327 328 328 328 329 329 330 331 331 331 332 332 333 333 334 334 334 334 334 334 334 334 334 334 334 334 334 334 334 334 334 334 334 334 333 333 333 333 333 333 333 333 333 333 333 333 332 331 331 331 331 331 331 331 331 331 331 331 331 331 330 330 330 330 330 330 330 330 330 329 329 329 334 334 334 334 334 334 334 334 334 334 334 334 334 334 334 335 335 335 335 335 335 335 335 335 335 335 335 335 385 385 385 385 385 385 386 387 389 389 389 389 389 389 389 389 390 390 390 390 390 390 390 390 390 391 391 391 392 392 392 392 392 392 392 392 392 392 392 393 393 393 393 393 393 393 393 394 394 394 395 395 395 395 395 395 395 395 395 395 395 395 395 395 395 395 395 395 395 395 395 395 395 395 395 395 395 395 395 395 395 395 395 395 395 396 396 396 396 397 397 397 397 397 397 397 397 397 397 397 397 397 397 397 397 397 397 397 397 397 397 397 397 396 395 394 393 392 390 389 389 389 389 389 389 389 389 389 389 389 389 389 389 389 389 389 389 389 389 389 389 389 389 389 389 389 389 389 389 389 389 389 389 389 390 390 390 390 390 390 390 390 390 390 390 391 391 391 391 391 391 391 391 391 391 391 391 391 391 391 391 391 391 391 391 391 391 392 392 392 392 392 392 392 392 392 392 392 392 392 392 392 392 392 392 392 392 392 392 392 393 393 393 393 393 394 394 395 395 395 395 395 396 396 396 397 397 397 397 398 398 398 398 398 398 399 399 399 399 399 399 399 399 399 399 399 399 399 399 399 399 399 399 399 399 399 399 399 398 398 398 398 398 397 397 397 396 396 396 396 396 396 396 396 396 396 395 395 395 395 395 395 395 395 395 395 395 394 394 394 394 394 394 394 394 394 394 394 395 395 395 395 395 395 395 395 395 395 395 395 395 395 395 395 395 395 396 396 396 396 396 396 396 396 396 396 396 396 396 396 396 396 396 396 396 396 396 396 396 396 396 396 396 396 396 396 396 396 396 396 396 396 396 396 396 396 396 396 396 396 396 396 396 396 396 396 396 396 396 396 396 396 396 396 396 396 396 396 396 396 395 395 395 395 395 395 395 395 395 395 395 395 395 395 395 395 395 395 395 395 395 395 395 395 395 395 395 395 395 395 395 395 395 394 394 394 394 393 393 393 392 392 392 391 391 391 391 391 391 391 390 390 390 390 390 390 390 390 390 390 390 390 390 390 390 390 390 390 390 390 390 390 390 390 390 390 390 390
545 545 545 545 545 545 545 545 545 547 547 547 547 547 547 547 547 547 547 547 547 547 547 547 547 547 547 547 547 547 547 547 547 547 547 547 547 547 547 547 547 547 547 547 547 547 547 547 547 547 547 547 547 547 547 547 547 547 547 547 547 547 547 547 260 260 260 260 260 260 260 261 261 261 261 261 261 262 262 262 262 262 262 262 263 264 265 265 265 266 266 266 267 268 269 270 271 271 271 272 272 272 273 273 274 274 274 274 275 275 275 275 275 275 275 276 276 276 276 276 276 276 276 277 277 278 278 278 279 279 279 279 280 280 280 286 288 294 295 295 309 309 309 309 309 309 309 308 309 310 310 310 310 310 310 310 311 310 310 310 311 311 311 311 311 311 312 313 314 314 314 315 316 317 317 318 319 320 320 320 321 322 323 324 324 325 326 327 327 327 328 328 328 329 329 330 331 331 331 332 332 333 333 334 334 334 334 334 334 334 334 334 334 334 334 334 334 334 334 334 334 334 334 333 333 333 333 333 333 333 333 333 333 332 332 332 331 331 331 331 331 331 331 331 331 331 331 331 331 330 330 330 330 330 330 330 330 330 329 329 329 329 329 329 334 334 334 334 334 334 334 334 334 334 334 334 335 335 335 335 335 335 335 335 335 335 335 335 335 385 385 385 385 385 385 386 387 390 390 390 390 390 390 390 390 391 391 391 391 391 391 391 391 391 391 391 391 392 392 392 392 392 392 392 392 392 392 392 393 393 393 393 393 393 393 393 394 394 394 395 395 395 396 396 396 396 396 396 396 396 396 396 396 396 396 396 396 396 396 396 396 396 396 396 396 396 396 396 396 396 396 396 396 396 396 397 397 397 397 397 397 397 397 397 397 397 397 397 397 397 397 397 397 397 397 397 397 397 397 397 397 397 397 396 395 394 393 391 390 389 389 389 389 389 389 389 389 389 389 389 389 389 389 389 389 389 389 389 389 389 389 389 389 389 389 389 389 389 389 389 389 389 389 390 390 390 390 390 390 390 390 390 390 390 391 391 391 391 391 391 391 391 391 391 391 391 391 391 391 391 391 391 391 391 391 391 392 392 392 392 392 392 392 392 392 392 392 392 392 392 392 392 392 392 392 392 392 392 392 393 393 393 393 394 394 394 395 395 395 395 395 396 396 396 396 396 396 396 397 397 397 397 397 397 398 398 398 398 398 398 398 398 398 398 398 398 398 398 398 398 398 398 398 398 398 398 398 398 398 398 398 398 397 397 397 396 396 396 396 396 396 396 396 396 396 395 395 395 395 395 395 395 395 395 395 395 394 394 394 394 394 394 394 394 394 394 394 395 395 395 395 395 395 395 395 395 395 395 395 395 395 395 395 395 395 396 396 396 396 396 396 396 396 396 396 396 396 396 396 396 396 396 396 396 396 396 396 396 396 396 396 396 396 396 396 396 396 396 396 396 396 396 396 396 396 396 396 396 396 396 396 396 396 396 396 396 396 396 396 396 396 396 396 396 396 396 396 396 396 395 395 395 395 395 395 395 395 395 395 395 395 395 395 395 395 395 395 395 395 395 395 395 395 395 395 395 395 395 395 395 395 395 394 394 394 394 393 393 393 392 392 392 391 391 391 391 391 391 391 390 390 390 390 390 390 390 390 390 390 390 390 390 390 390 390 390 390 390 390 390 390 390 390 390 390 390 390
545 545 545 545 545 545 545 545 545 547 547 547 547 547 547 547 547 547 547 547 547 547 547 547 547 547 547 547 547 547 547 547 547 547 547 547 547 547 547 547 547 547 547 547 547 547 547 547 547 547 547 547 547 547 547 547 547 547 547 547 547 547 547 547 260 260 260 260 261 261 261 261 261 261 261 262 262 262 262 262 262 262 263 263 264 264 265 265 265 266 267 267 268 269 270 270 271 271 271 272 272 272 273 273 274 274 274 274 275 275 275 275 275 275 276 276 276 276 276 276 276 276 277 278 278 279 279 280 281 281 282 282 283 283 283 286 286 286 286 286 286 286 286 286 286 286 309 307 309 310 310 310 310 310 310 310 311 310 310 310 311 311 311 311 311 311 312 313 314 314 314 315 316 317 317 318 319 320 320 320 321 322 323 324 324 325 326 327 327 327 328 328 328 329 329 330 331 331 331 332 332 333 333 334 334 334 334 334 334 334 334 334 334 334 334 334 334 334 334 334 334 334 334 333 333 333 333 333 333 333 333 333 332 332 332 332 331 331 331 331 331 331 331 331 331 331 331 331 331 330 330 330 330 330 330 330 330 330 329 329 329 329 329 329 329 329 329 334 334 334 334 334 334 334 334 334 335 335 335 335 335 335 335 335 335 335 335 335 335 385 385 385 385 385 385 386 387 391 391 391 391 391 391 391 391 392 392 392 392 392 392 392 392 392 392 392 392 392 392 392 392 392 392 392 392 392 392 392 393 393 393 393 393 393 393 393 394 394 394 395 395 395 396 396 396 396 396 396 396 396 396 396 396 396 396 396 396 396 396 396 396 396 396 396 396 396 396 396 396 396 396 396 397 397 397 397 397 397 397 397 397 397 397 397 397 397 397 397 397 397 397 397 397 397 397 397 397 397 397 397 397 397 397 397 396 395 394 392 391 389 389 389 389 389 389 389 389 389 389 389 389 389 389 389 389 389 389 389 389 389 389 389 389 389 389 389 389 389 389 389 389 389 389 390 390 390 390 390 390 391 391 391 391 391 391 391 391 391 391 391 391 391 391 391 391 391 391 391 391 391 391 391 391 391 391 391 392 392 392 392 392 392 392 392 392 392 392 392 392 392 392 392 392 392 392 392 392 392 392 393 394 394 394 394 395 395 395 395 395 395 395 396 396 396 396 396 396 396 396 396 396 396 396 397 397 397 398 398 398 398 398 398 398 398 398 398 398 398 398 398 398 398 398 398 398 398 398 398 398 397 397 397 396 396 396 396 396 396 396 396 396 396 396 396 396 395 395 395 395 395 395 395 395 395 395 395 394 394 394 394 394 394 394 394 394 394 394 395 395 395 395 395 395 395 394 395 395 395 395 395 395 395 395 395 395 396 396 396 396 396 396 396 396 396 396 396 396 396 396 396 396 396 396 396 396 396 396 396 396 396 396 396 396 396 396 396 396 396 396 396 396 396 396 396 396 396 396 396 396 396 396 396 396 396 396 396 396 396 396 396 396 396 396 396 396 396 396 396 396 395 395 395 395 395 395 395 395 395 395 395 395 395 395 395 395 395 395 395 395 395 395 395 395 395 395 395 395 395 395 395 395 395 394 394 394 394 393 393 393 392 392 392 391 391 391 391 391 391 391 390 390 390 390 390 390 390 390 390 390 390 390 390 390 390 390 390 390 390 390 390 390 390 390 390 390 390 390
545 545 545 545 545 545 545 545 545 547 547 547 547 547 547 547 547 547 547 547 547 547 547 547 547 547 547 547 547 547 547 547 547 547 547 547 547 547 547 547 547 547 547 547 547 547 547 547 547 547 547 547 547 547 547 547 547 547 547 547 547 547 547 547 547 547 547 547 262 262 262 262 262 262 262 263 263 263 263 263 263 263 264 264 264 265 265 266 266 267 267 268 268 269 270 270 271 271 271 272 272 272 273 273 274 274 274 274 275 275 275 275 275 275 276 276 276 276 276 276 276 277 278 279 279 280 280 281 282 282 283 284 285 285 285 286 286 286 286 286 286 286 286 286 286 287 309 305 309 310 310 310 310 310 310 310 311 310 310 310 311 311 311 311 311 311 312 313 314 314 314 315 316 317 317 318 319 320 320 320 321 322 323 324 324 325 326 327 327 327 328 328 328 329 329 330 331 331 331 332 332 333 333 334 334 334 334 334 334 334 334 334 334 334 334 334 334 334 334 334 334 334 334 333 333 333 333 333 333 332 332 332 332 332 332 332 331 331 331 331 331 331 331 331 331 331 331 331 331 330 330 330 330 330 330 330 330 330 329 329 329 329 329 329 329 329 329 334 334 334 334 334 334 334 334 334 335 335 335 335 335 335 335 335 335 335 335 335 335 385 385 385 385 385 385 386 387 392 392 392 392 392 392 392 392 392 392 392 392 392 392 392 392 392 392 392 392 392 392 392 392 392 392 392 392 392 392 392 393 393 393 393 393 393 393 393 394 394 394 395 395 395 396 396 396 396 396 396 396 396 396 396 397 397 397 397 397 397 397 397 397 397 397 397 397 397 397 397 397 397 397 397 397 397 397 397 397 397 397 397 397 397 397 397 397 397 397 397 397 397 397 397 397 397 397 397 397 397 397 397 397 397 397 397 397 396 395 393 392 389 389 389 389 389 389 389 389 389 389 389 389 389 389 389 389 389 389 389 389 389 389 389 389 389 389 389 389 389 389 389 389 389 389 390 390 390 390 390 391 391 391 391 391 391 391 391 391 391 391 391 391 391 391 391 391 391 391 391 391 391 391 391 391 391 391 391 392 392 392 392 392 392 392 392 392 392 392 392 392 392 392 392 392 392 392 392 392 392 392 393 394 394 394 394 395 395 395 395 395 395 395 395 395 395 395 395 395 396 396 396 396 396 396 397 397 397 397 397 397 397 397 397 397 397 397 397 397 397 397 397 397 397 397 397 397 397 397 397 397 397 397 397 396 396 396 396 396 396 396 396 396 396 396 396 396 395 395 395 395 395 395 395 395 395 395 395 394 394 394 394 394 394 394 394 394 394 394 395 395 395 395 395 395 395 394 395 395 395 394 394 394 395 395 395 395 396 396 396 396 396 396 396 396 396 396 396 396 396 396 396 396 396 396 396 396 396 396 396 396 396 396 396 396 396 396 396 396 396 396 396 396 396 396 396 396 396 396 396 396 396 396 396 396 396 396 396 396 396 396 396 396 396 396 396 396 396 396 396 396 395 395 395 395 395 395 395 395 395 395 395 395 395 395 395 395 395 395 395 395 395 395 395 395 395 395 395 395 395 395 395 395 395 394 394 394 394 393 393 393 392 392 392 391 391 391 391 391 391 391 390 390 390 390 390 390 390 390 390 390 390 390 390 390 390 390 390 390 390 390 390 390 390 390 390 390 390 390
545 545 545 545 545 545 545 545 545 547 547 547 547 547 547 547 547 547 547 547 547 547 547 547 547 547 547 547 547 547 547 547 547 547 547 547 547 547 547 547 547 547 547 547 547 547 547 547 547 547 547 547 547 547 547 547 547 547 547 547 547 547 547 547 547 547 547 547 263 263 263 263 263 263 263 264 264 264 264 264 264 264 265 265 265 266 266 267 267 267 267 268 268 269 270 270 271 271 271 272 272 272 273 273 274 274 274 274 275 275 275 275 275 275 276 276 276 277 277 277 277 278 279 279 279 280 281 282 283 283 284 285 286 286 286 287 287 287 287 287 287 287 287 287 287 288 309 300 309 310 310 310 310 310 310 310 311 310 310 310 311 311 311 311 311 311 312 313 314 314 314 315 316 317 318 319 319 320 320 320 321 322 323 324 324 325 326 327 327 327 328 328 328 329 329 330 331 331 331 332 332 333 333 334 334 334 334 334 334 334 334 334 334 334 334 334 334 334 334 334 334 334 334 333 333 333 333 333 333 332 332 332 332 332 332 332 331 331 331 331 331 331 331 331 331 331 331 331 331 330 330 330 330 330 330 330 330 330 329 329 329 329 329 329 329 329 329 329 334 334 334 334 334 334 334 334 335 335 335 335 335 335 335 335 335 335 335 335 335 385 385 385 385 385 385 386 387 392 392 392 392 392 392 392 392 392 392 392 392 392 392 392 392 392 392 392 392 392 392 392 392 392 392 392 392 392 392 392 393 393 393 393 393 393 393 393 394 394 394 395 395 395 396 396 396 396 396 396 396 396 396 396 397 397 397 397 397 397 397 397 397 397 397 397 397 397 397 397 397 397 397 397 397 397 397 397 397 397 397 397 397 397 397 397 397 397 397 397 397 397 397 397 397 397 397 397 397 397 397 397 397 397 397 397 397 396 395 394 392 390 389 389 389 389 389 389 389 389 389 389 389 389 389 389 389 389 389 389 389 389 389 389 389 389 389 389 389 389 389 389 389 389 389 390 390 390 390 390 391 391 391 391 391 391 391 391 391 391 391 391 391 391 391 391 391 391 391 391 391 391 391 391 391 391 391 391 392 392 392 392 392 392 392 392 392 392 392 392 392 392 392 392 392 392 392 393 393 393 393 393 394 394 394 394 395 395 395 395 395 395 395 395 395 395 395 395 395 395 395 395 395 395 396 396 396 396 397 397 397 397 397 397 397 397 397 397 397 397 397 397 397 397 397 397 397 397 397 397 397 397 397 397 396 396 396 396 396 396 396 396 396 396 396 396 396 395 395 395 395 395 395 395 395 395 395 395 394 394 394 394 394 394 394 394 394 394 394 395 395 395 395 395 395 395 394 395 395 395 394 394 394 395 395 395 395 396 396 396 396 396 396 396 396 396 396 396 396 396 396 396 396 396 396 396 396 396 396 396 396 396 396 396 396 396 396 396 396 396 396 396 396 396 396 396 396 396 396 396 396 396 396 396 396 396 396 396 396 396 396 396 396 396 396 396 396 396 396 396 396 395 395 395 395 395 395 395 395 395 395 395 395 395 395 395 395 395 395 395 395 395 395 395 395 395 395 395 395 395 395 395 395 395 394 394 394 394 393 393 393 392 392 392 391 391 391 391 391 391 391 390 390 390 390 390 390 390 390 390 390 390 390 390 390 390 390 390 390 390 390 390 390 390 390 390 390 390 390
545 545 545 545 545 545 545 545 545 547 547 547 547 547 547 547 547 547 547 547 547 547 547 547 547 547 547 547 547 547 547 547 547 547 547 547 547 547 547 547 547 547 547 547 547 547 547 547 547 547 547 547 547 547 547 547 547 547 547 547 547 547 547 547 547 547 547 547 263 264 264 264 264 264 264 264 265 265 265 265 265 265 265 265 265 266 267 267 267 267 267 268 269 269 270 270 271 271 271 272 272 272 273 273 274 274 274 274 275 275 275 275 275 276 276 276 277 277 277 277 277 278 279 279 279 280 281 282 283 283 284 285 286 287 287 287 287 287 287 287 287 287 287 287 288 289 289 290 309 310 310 310 310 310 310 310 310 310 310 310 311 311 311 311 311 311 312 313 314 314 314 315 316 317 318 319 319 320 320 320 321 322 323 324 324 325 326 327 327 327 328 328 328 329 329 330 331 331 331 332 332 333 333 334 334 334 334 334 334 334 334 334 334 334 334 334 334 334 334 334 334 334 334 333 333 333 333 333 333 332 332 332 332 332 332 332 331 331 331 331 331 331 331 331 331 331 331 331 331 330 330 330 330 330 330 330 330 330 329 329 329 329 329 329 329 329 329 329 329 334 334 334 334 334 334 334 335 335 335 335 335 335 335 335 335 335 335 335 335 385 385 385 385 385 385 386 387 392 392 392 392 392 392 392 392 392 392 392 392 392 392 392 392 392 392 392 392 392 392 392 392 392 392 392 392 392 392 392 393 393 393 393 393 393 393 393 394 394 394 395 395 395 396 396 396 396 396 396 396 396 396 396 397 397 397 397 397 397 397 397 397 397 397 397 397 397 397 397 397 397 397 397 397 397 397 397 397 397 397 397 397 397 397 397 397 397 397 397 397 397 397 397 397 397 397 397 397 397 397 397 397 397 397 397 397 396 395 394 393 390 389 389 389 389 389 389 389 389 389 389 389 389 389 389 389 389 389 389 389 389 389 389 389 389 389 389 389 389 389 389 389 389 389 390 390 390 390 390 391 391 391 391 391 391 391 391 391 391 391 391 391 391 391 391 391 391 391 391 391 391 391 391 391 391 391 391 392 392 392 392 392 392 392 392 392 392 392 392 392 392 392 392 392 393 393 393 393 393 393 394 394 394 394 395 395 395 395 395 395 395 395 395 395 395 395 395 395 395 395 395 395 395 395 396 396 396 396 397 397 397 397 397 397 397 397 397 397 397 397 397 397 397 397 397 397 397 397 397 397 397 397 397 396 396 396 396 396 396 396 396 396 396 396 396 396 395 395 395 395 395 395 395 395 395 395 395 394 394 394 394 394 394 394 394 394 394 394 395 395 395 395 395 395 395 394 395 395 395 394 394 394 395 395 395 395 396 396 396 396 396 396 396 396 396 396 396 396 396 396 396 396 396 396 396 396 396 396 396 396 396 396 396 396 396 396 396 396 396 396 396 396 396 396 396 396 396 396 396 396 396 396 396 396 396 396 396 396 396 396 396 396 396 396 396 396 396 396 396 396 395 395 395 395 395 395 395 395 395 395 395 395 395 395 395 395 395 395 395 395 395 395 395 395 395 395 395 395 395 395 395 395 395 394 394 394 394 393 393 393 392 392 392 391 391 391 391 391 391 391 390 390 390 390 390 390 390 390 390 390 390 390 390 390 390 390 390 390 390 390 390 390 390 390 390 390 390 390
545 545 545 545 545 545 545 545 545 547 547 547 547 547 547 547 547 547 547 547 547 547 547 547 547 547 547 547 547 547 547 547 547 547 547 547 547 547 547 547 547 547 547 547 547 547 547 547 547 547 547 547 547 547 547 547 547 547 547 547 547 547 547 547 547 547 547 547 547 264 264 265 265 265 265 265 265 265 266 266 266 266 266 266 266 266 267 267 267 267 267 268 269 270 270 270 271 271 271 272 272 272 273 273 274 274 274 274 275 275 275 275 275 276 276 276 277 277 277 277 277 278 279 279 279 280 281 282 283 283 284 285 286 287 287 287 287 287 287 287 287 287 287 288 289 291 292 293 309 309 309 309 309 309 309 309 309 310 310 310 310 311 311 311 311 311 312 313 314 314 314 315 316 317 318 319 319 320 320 320 321 322 323 324 324 325 326 327 327 327 328 328 328 329 329 330 331 331 331 332 332 333 333 334 334 334 334 334 334 334 334 334 334 334 334 334 334 334 334 334 334 334 334 333 333 333 333 333 333 332 332 332 332 332 332 332 331 331 331 331 331 331 331 331 331 331 331 331 331 330 330 330 330 330 330 330 330 330 329 329 329 329 329 329 329 329 329 329 329 334 334 334 334 334 334 334 335 335 335 335 335 335 335 335 335 335 335 335 335 385 385 385 385 392 392 392 392 392 392 392 392 392 392 392 392 392 392 392 392 392 392 392 392 392 392 392 392 392 392 392 392 392 392 392 392 392 392 392 393 393 393 393 393 393 393 393 394 394 394 395 395 395 396 396 396 396 396 396 396 396 396 396 397 397 397 397 397 397 397 397 397 397 397 397 397 397 397 397 397 397 397 397 397 397 397 397 397 397 397 397 397 397 397 397 397 397 397 397 397 397 397 397 397 397 397 397 397 397 397 397 397 397 397 397 397 396 395 394 393 391 390 389 389 389 389 389 389 389 389 389 389 389 389 389 389 389 389 389 389 389 389 389 389 389 389 389 389 389 389 389 389 389 389 390 390 390 390 390 391 391 391 391 391 391 391 391 391 391 391 391 391 391 391 391 391 391 391 391 391 391 391 391 391 391 391 391 392 392 392 392 392 392 392 392 392 392 392 392 392 392 392 392 392 393 393 393 393 393 393 394 394 394 394 395 395 395 395 395 395 395 395 395 395 395 395 395 395 395 395 395 395 395 395 396 396 396 396 396 396 396 396 396 396 396 396 396 396 396 396 396 396 396 396 396 396 396 396 396 396 396 396 396 396 396 396 396 396 396 396 396 396 396 396 396 396 395 395 395 395 395 395 395 395 395 395 395 394 394 394 394 394 394 394 394 394 394 394 395 395 395 395 395 395 395 394 395 395 395 394 394 394 395 395 395 395 396 396 396 396 396 396 396 396 396 396 396 396 396 396 396 396 396 396 396 396 396 396 396 396 396 396 396 396 396 396 396 396 396 396 396 396 396 396 396 396 396 396 396 396 396 396 396 396 396 396 396 396 396 396 396 396 396 396 396 396 396 396 396 396 395 395 395 395 395 395 395 395 395 395 395 395 395 395 395 395 395 395 395 395 395 395 395 395 395 395 395 395 395 395 395 395 395 394 394 394 394 393 393 393 392 392 392 391 391 391 391 391 391 391 390 390 390 390 390 390 390 390 390 390 390 390 390 390 390 390 390 390 390 390 390 390 390 390 390 390 390 390
545 545 545 545 545 545 545 545 545 547 547 547 547 547 547 547 547 547 547 547 547 547 547 547 547 547 547 547 547 547 547 547 547 547 547 547 547 547 547 547 547 547 547 547 547 547 547 547 547 547 547 547 547 547 547 547 547 547 547 547 547 547 547 547 547 547 547 547 547 547 547 265 265 266 266 266 266 266 266 266 266 266 266 266 267 267 267 267 267 267 267 268 269 270 270 270 271 271 271 272 272 272 273 273 274 274 274 274 275 275 275 275 275 276 276 276 277 277 277 277 277 278 279 279 279 280 281 282 283 283 284 285 286 287 287 288 288 288 288 288 288 288 288 290 292 296 298 300 308 308 308 308 308 308 308 308 309 309 309 310 310 311 311 311 311 311 312 313 314 314 315 316 317 318 318 319 319 320 320 320 321 322 323 324 324 325 326 327 327 327 328 328 328 329 329 330 331 331 331 332 332 333 333 334 334 334 334 334 334 334 334 334 334 334 334 334 334 334 334 334 334 334 334 333 333 333 333 333 333 332 332 332 332 332 332 332 331 331 331 331 331 331 331 331 331 331 331 331 331 330 330 330 330 330 330 330 330 330 329 329 329 329 329 329 329 329 329 329 329 329 334 334 334 334 334 334 335 335 335 335 335 335 335 335 335 335 335 335 335 385 385 391 391 392 392 392 392 392 392 392 392 392 392 392 392 392 392 392 392 392 392 392 392 392 392 392 392 392 392 392 392 392 392 392 392 392 392 392 393 393 393 393 393 393 393 393 394 394 394 395 395 395 396 396 396 396 396 396 396 396 396 396 397 397 397 397 397 397 397 397 397 397 397 397 397 397 397 397 397 397 397 397 397 397 397 397 397 397 397 397 397 397 397 397 397 397 397 397 397 397 397 397 397 397 397 397 397 397 397 397 397 397 397 397 397 396 395 394 393 392 391 390 390 390 390 390 390 390 390 390 390 390 390 390 390 390 390 390 390 390 390 390 390 390 390 390 390 390 390 390 390 390 390 390 390 390 390 390 391 391 391 391 391 391 391 391 391 391 391 391 391 391 391 391 391 391 391 392 392 392 392 392 392 392 392 392 392 392 392 392 392 392 392 392 392 392 392 392 392 392 393 393 393 393 393 393 393 394 394 394 394 394 394 395 395 395 395 395 395 395 395 395 395 395 395 395 395 395 395 395 395 395 395 395 395 395 396 396 396 396 396 396 396 396 396 396 396 396 396 396 396 396 396 396 396 396 396 396 396 396 396 396 396 396 396 396 396 396 396 396 396 396 396 396 396 395 395 395 395 395 395 395 395 395 395 395 394 394 394 394 394 394 394 394 394 394 394 395 395 395 395 395 395 395 394 395 395 395 394 394 394 395 395 395 395 396 396 396 396 396 396 396 396 396 396 396 396 396 396 396 396 396 396 396 396 396 396 396 396 396 396 396 396 396 396 396 396 396 396 396 396 396 396 396 396 396 396 396 396 396 396 396 396 396 396 396 396 396 396 396 396 396 396 396 396 396 396 396 396 395 395 395 395 395 395 395 395 395 395 395 395 395 395 395 395 395 395 395 395 395 395 395 395 395 395 395 395 395 395 395 395 395 394 394 394 394 393 393 393 392 392 392 391 391 391 391 391 391 391 390 390 390 390 390 390 390 390 390 390 390 390 390 390 390 390 390 390 390 390 390 390 390 390 390 390 390 390
545 545 545 545 545 545 545 545 545 547 547 547 547 547 547 547 547 547 547 547 547 547 547 547 547 547 547 547 547 547 547 547 547 547 547 547 547 547 547 547 547 547 547 547 547 547 547 547 547 547 547 547 547 547 547 547 547 547 547 547 547 547 547 547 547 547 547 547 547 547 547 547 265 266 266 266 266 266 266 266 266 266 266 266 267 267 267 267 267 267 267 268 269 270 270 270 271 271 271 272 272 272 273 273 274 274 274 274 275 275 275 275 275 276 276 276 277 277 277 277 277 278 279 279 279 280 281 282 283 283 284 285 286 287 287 288 288 288 288 288 288 288 289 291 294 299 301 303 307 308 308 308 308 308 308 308 309 309 309 309 309 310 310 310 311 311 312 313 314 314 315 316 317 318 318 319 319 320 320 320 321 322 323 324 324 325 326 327 327 327 328 328 328 329 329 330 331 331 331 332 332 333 333 334 334 334 334 334 334 334 334 334 334 334 334 334 334 334 334 334 334 334 334 333 333 333 333 333 333 332 332 332 332 332 332 332 331 331 331 331 331 331 331 331 331 331 331 331 331 330 330 330 330 330 330 330 330 330 329 329 329 329 329 329 329 329 329 329 329 329 329 334 334 334 334 334 335 335 335 335 335 335 335 335 335 335 335 335 335 385 385 391 391 391 391 391 391 392 391 391 391 391 391 391 391 391 391 391 391 391 391 391 391 391 391 391 392 392 392 392 392 392 392 392 392 392 392 392 392 392 392 393 393 393 393 393 394 394 394 395 395 395 396 396 396 396 396 396 396 396 396 396 397 397 397 397 397 397 397 397 397 397 397 397 397 397 397 397 397 397 397 397 397 397 397 397 397 397 397 397 397 397 397 397 397 397 397 397 397 397 397 397 397 397 397 397 397 397 397 397 397 397 397 397 396 396 395 394 393 392 391 390 390 390 390 390 390 390 390 390 390 390 390 390 390 390 390 390 390 390 390 390 390 390 390 390 390 390 390 390 390 390 390 390 390 390 390 390 391 391 391 391 391 391 391 391 391 391 391 391 391 391 391 391 391 391 391 392 392 392 392 392 392 392 392 392 392 392 392 392 392 392 392 393 393 393 393 393 393 393 393 393 393 393 393 394 394 394 394 394 394 394 394 395 395 395 395 395 395 395 395 395 395 395 395 395 395 395 395 395 395 395 395 395 395 395 396 396 396 396 396 396 396 396 396 396 396 396 396 396 396 396 396 396 396 396 396 396 396 396 396 396 396 396 396 396 396 396 396 396 396 396 396 396 396 395 395 395 395 395 395 395 395 395 395 395 394 394 394 394 394 394 394 394 394 394 394 395 395 395 395 395 395 395 394 395 395 395 394 394 394 395 395 395 395 396 396 396 396 396 396 396 396 396 396 396 396 396 396 396 396 396 396 396 396 396 396 396 396 396 396 396 396 396 396 396 396 396 396 396 396 396 396 396 396 397 397 397 397 397 397 397 397 397 397 397 397 397 396 396 396 396 396 396 396 396 396 396 396 395 395 395 395 395 395 395 395 395 395 395 395 395 395 395 395 395 395 395 395 395 395 395 395 395 395 395 395 395 395 395 395 395 394 394 394 394 393 393 393 392 392 392 391 391 391 391 391 391 391 390 390 390 390 390 390 390 390 390 390 390 390 390 390 390 390 390 390 390 390 390 390 390 390 390 390 390 390
545 545 545 545 545 545 545 545 545 547 547 280 280 280 280 280 280 279 279 279 279 279 279 279 279 279 279 279 279 279 279 279 278 278 278 278 278 278 278 278 278 278 278 278 547 547 547 547 547 547 547 547 547 547 547 547 547 547 547 547 547 547 547 547 547 547 547 547 547 547 547 547 265 266 266 266 266 266 266 266 266 266 266 266 267 267 267 267 267 267 267 268 269 270 270 270 271 271 271 272 272 272 273 273 274 274 274 274 275 275 275 275 275 276 276 276 277 277 277 277 277 278 279 279 279 280 281 282 283 283 284 285 286 287 287 288 288 288 288 289 289 289 290 292 295 300 302 304 307 308 308 308 308 308 308 308 308 308 308 308 308 309 309 309 310 310 311 312 314 314 315 316 317 318 318 319 319 320 320 320 321 322 323 324 324 325 326 327 327 328 328 328 328 329 329 330 331 331 331 332 332 333 333 334 334 334 334 334 334 334 334 334 334 334 334 334 334 334 334 334 334 334 334 333 333 333 333 333 333 332 332 332 332 332 332 332 331 331 331 331 331 331 331 331 331 331 331 331 331 330 330 330 330 330 330 330 330 330 330 330 330 330 330 330 330 330 330 330 330 330 330 334 334 334 334 334 335 335 335 335 335 335 335 335 335 335 335 335 335 388 388 390 390 390 390 390 390 391 390 390 390 390 390 390 390 390 390 390 390 390 390 390 390 390 390 390 391 391 391 391 391 391 391 391 391 391 391 391 391 391 391 392 393 393 393 393 394 394 394 395 395 395 396 396 396 396 396 396 396 396 396 396 397 397 397 397 397 397 397 397 397 397 397 397 397 397 397 397 397 397 397 397 397 397 397 397 397 397 397 397 397 397 397 397 397 397 397 397 397 397 397 397 397 397 397 397 397 397 397 397 397 396 396 396 395 395 395 394 393 392 392 391 390 390 390 390 390 390 390 390 390 390 390 390 390 390 390 390 390 390 390 390 390 390 390 390 390 390 390 390 390 390 390 390 390 390 390 390 391 391 391 391 391 391 391 391 391 391 391 392 392 392 392 392 392 392 392 392 392 392 392 392 392 392 392 392 392 392 392 392 392 392 392 393 393 393 393 393 393 393 393 393 393 393 393 394 394 394 394 394 394 394 394 395 395 395 395 395 395 395 395 395 395 395 395 395 395 395 395 395 395 395 395 395 395 395 396 396 396 396 396 396 396 396 396 396 396 396 396 396 396 396 396 396 396 396 396 396 396 396 396 396 396 396 396 396 396 396 396 396 396 396 396 396 396 395 395 395 395 395 395 395 395 395 395 395 394 394 394 394 394 394 394 394 394 394 394 395 395 395 395 395 395 395 394 395 395 395 394 394 394 395 395 395 395 396 396 396 396 396 396 396 396 396 396 396 396 396 396 396 396 396 396 396 396 396 396 396 396 396 396 396 396 396 396 396 396 396 396 397 397 397 397 397 397 398 398 398 398 398 398 398 398 398 398 398 398 398 397 397 397 397 397 397 396 396 396 396 396 395 395 395 395 395 395 395 395 395 395 395 395 395 395 395 395 395 395 395 395 395 395 395 395 395 395 395 395 395 395 395 395 395 394 394 394 394 393 393 393 392 392 392 391 391 391 391 391 391 391 390 390 390 390 390 390 390 390 390 390 390 390 390 390 390 390 390 390 390 390 390 390 390 390 390 390 390 390
545 545 545 545 545 545 545 545 545 281 281 281 281 281 281 281 281 280 280 280 280 280 280 280 280 280 279 279 279 279 279 279 278 278 278 278 278 278 278 278 278 278 278 278 278 278 278 278 278 547 547 547 547 547 547 547 547 547 547 547 547 547 547 547 547 547 547 547 547 547 547 547 547 266 266 266 266 266 266 266 266 266 266 266 267 267 267 267 267 267 267 268 269 270 270 270 271 271 271 272 272 272 273 273 274 274 274 274 275 275 275 275 275 276 276 276 277 277 277 277 277 278 279 279 279 280 281 282 283 283 284 285 286 287 287 288 289 289 289 290 290 290 291 293 296 301 303 305 306 307 307 307 307 307 307 307 307 307 307 307 308 308 308 309 309 310 310 311 313 313 314 315 316 317 318 319 319 320 320 320 321 322 323 324 324 325 326 327 328 328 328 328 328 329 329 330 331 331 331 332 332 333 333 334 334 334 334 334 334 334 334 334 334 334 334 334 334 334 334 334 334 334 334 333 333 333 333 333 333 332 332 332 332 332 332 332 331 331 331 331 331 331 331 331 331 331 331 331 331 330 330 330 330 330 330 330 330 330 330 330 330 330 330 330 330 330 330 330 330 330 330 334 334 334 334 334 335 335 335 335 335 335 335 335 335 335 335 335 385 388 388 389 389 389 389 389 389 390 389 389 389 389 389 389 389 389 389 389 389 389 389 389 389 389 389 389 390 390 390 390 390 390 390 390 390 390 390 390 391 391 391 392 393 393 393 393 394 394 394 395 395 395 396 396 396 396 396 396 396 396 396 396 397 397 397 397 397 397 397 397 397 397 397 397 397 397 397 397 397 397 397 397 397 397 397 397 397 397 397 397 397 397 397 397 397 397 397 397 397 397 397 397 397 397 397 397 397 397 397 397 396 396 396 395 394 394 394 393 393 392 392 391 390 390 390 390 390 390 390 390 390 390 390 390 390 390 390 390 390 390 390 390 390 390 390 390 390 390 390 390 390 390 390 390 390 390 390 390 391 391 391 391 391 391 391 391 392 392 392 392 392 392 392 393 393 393 393 393 393 393 393 393 393 393 393 393 393 393 393 393 393 393 393 393 393 393 393 393 393 393 393 393 393 394 394 394 394 394 394 394 394 394 394 395 395 395 395 395 395 395 395 395 395 395 395 395 395 395 395 395 395 395 395 395 395 395 396 396 396 396 396 396 396 396 396 396 396 396 396 396 396 396 396 396 396 396 396 396 396 396 396 396 396 396 396 396 396 396 396 396 396 396 396 396 396 395 395 395 395 395 395 395 395 395 395 395 394 394 394 394 394 394 394 394 394 394 394 395 395 395 395 395 395 395 394 395 395 395 394 394 394 395 395 395 395 396 396 396 396 396 396 396 396 396 396 396 396 396 396 396 396 396 396 396 396 396 396 396 396 396 396 396 396 396 396 396 396 396 396 397 397 398 398 398 398 399 399 399 399 400 400 400 400 400 400 400 400 400 399 399 399 399 398 398 397 397 396 396 396 395 395 395 395 395 395 395 395 395 395 395 395 395 395 395 395 395 395 395 395 395 395 395 395 395 395 395 395 395 395 395 395 395 394 394 394 394 393 393 393 392 392 392 391 391 391 391 391 391 391 390 390 390 390 390 390 390 390 390 390 390 390 390 390 390 390 390 390 390 390 390 390 390 390 390 390 390 390
545 545 545 545 545 545 545 545 545 282 282 282 282 282 282 282 282 281 281 281 281 281 281 281 281 280 279 279 279 279 279 279 278 278 278 278 278 278 278 278 278 278 278 278 278 278 278 278 278 278 547 547 547 547 547 547 547 547 547 547 547 547 547 547 547 547 547 547 547 547 547 547 547 547 547 547 547 266 266 266 266 266 266 266 266 267 267 267 267 267 267 268 269 270 270 270 271 271 271 272 272 272 273 273 274 274 274 274 275 275 275 275 275 276 276 276 277 277 277 277 277 278 279 279 279 280 281 281 282 282 283 284 285 286 286 288 291 291 291 292 292 293 294 295 298 302 304 305 306 307 307 307 307 307 307 307 307 307 307 307 308 308 308 308 308 309 310 310 312 312 313 314 315 316 317 318 319 320 320 320 321 322 323 324 325 326 327 328 328 328 328 328 328 329 329 330 331 331 331 332 332 333 333 334 334 334 334 334 334 334 334 334 334 334 334 334 334 334 334 334 334 334 334 333 333 333 333 333 333 332 332 332 332 332 332 332 331 331 331 331 331 331 331 331 331 331 331 331 331 330 330 330 330 330 330 330 330 330 330 330 330 330 330 330 330 330 330 330 330 330 330 330 334 334 334 334 335 335 335 335 335 335 335 335 335 335 335 335 385 387 387 388 388 388 388 388 388 389 388 388 388 388 388 388 388 388 388 388 388 388 388 388 388 388 388 388 389 389 389 389 389 389 389 389 389 389 389 389 390 390 391 392 392 393 393 393 394 394 394 395 395 395 396 396 396 396 396 396 396 396 396 396 397 397 397 397 397 397 397 397 397 397 397 397 397 397 397 397 397 397 397 397 397 397 397 397 397 397 397 397 397 397 397 397 397 397 397 397 396 396 396 396 396 396 396 396 396 396 396 396 395 395 395 395 394 394 393 392 392 392 392 391 391 391 391 391 391 391 391 391 391 391 391 391 391 391 391 391 391 391 391 391 391 391 391 391 391 391 391 391 391 391 391 391 391 391 391 391 391 391 391 391 391 391 391 391 392 392 392 392 392 392 392 393 393 393 393 393 393 393 393 393 393 393 393 393 393 393 393 393 393 393 393 393 393 393 393 393 393 394 394 394 394 394 394 394 394 394 394 394 394 394 394 395 395 395 395 395 395 395 395 395 395 395 395 395 395 395 395 395 395 395 395 395 395 395 395 396 396 396 396 396 396 396 396 396 396 396 396 396 396 396 396 396 396 396 396 396 396 396 396 396 396 396 396 396 396 396 396 396 396 396 396 396 396 395 395 395 395 395 395 395 395 395 395 395 394 394 394 394 394 394 394 394 394 394 394 395 395 395 395 395 395 395 394 395 395 395 394 394 394 395 395 395 395 396 396 396 396 396 396 396 396 396 396 396 396 396 396 396 396 396 396 396 396 396 396 396 396 396 396 396 396 396 396 396 396 396 396 397 397 398 399 399 399 400 400 401 401 402 402 403 403 403 403 403 403 403 402 401 401 401 400 399 398 398 397 396 396 395 395 395 395 395 395 395 395 395 395 395 395 395 395 395 395 395 395 395 395 395 395 395 395 395 395 395 395 395 395 395 395 395 394 394 394 394 393 393 393 392 392 392 391 391 391 391 391 391 390 390 390 390 390 390 390 390 390 390 390 390 390 390 390 390 390 390 390 390 390 390 390 390 390 390 390 390 390
284 284 284 284 284 284 284 284 284 283 283 283 283 283 283 283 283 282 282 282 282 282 282 281 281 280 279 279 279 279 279 279 278 278 278 278 278 278 278 278 278 278 278 278 278 278 278 278 278 278 547 547 547 547 547 547 547 547 547 547 547 547 547 260 260 260 260 261 261 261 261 261 261 261 261 261 261 264 264 264 264 264 264 265 265 266 266 267 267 267 267 268 269 270 270 270 271 271 271 272 272 272 273 273 274 274 274 274 275 275 275 275 275 276 276 276 277 277 277 277 277 278 279 279 279 280 280 280 281 281 282 283 283 284 284 288 294 294 294 295 295 296 297 299 301 303 304 305 306 306 306 306 306 306 306 306 306 306 307 307 307 307 308 308 308 309 310 310 311 312 313 314 315 316 317 318 319 320 320 320 321 322 323 324 325 326 327 328 328 328 328 328 328 329 329 330 331 331 331 332 332 333 333 334 334 334 334 334 334 334 334 334 334 334 334 334 334 334 334 334 334 334 334 333 333 333 333 333 333 332 332 332 332 332 332 332 331 331 331 331 331 331 331 331 331 331 331 331 331 330 330 330 330 330 330 330 330 330 330 330 330 330 330 330 330 330 330 330 330 330 330 330 330 334 334 334 335 335 335 335 335 335 335 335 335 335 335 335 385 386 386 387 387 387 387 387 387 388 387 387 387 387 387 387 387 387 387 387 387 387 387 387 387 387 387 387 388 388 388 388 388 388 388 388 388 388 388 389 389 390 391 391 392 392 393 393 394 394 394 395 395 395 396 396 396 396 396 396 396 396 396 396 397 397 397 397 397 397 397 397 397 397 397 397 397 397 397 397 397 397 397 397 397 397 397 397 397 397 397 397 397 397 397 397 397 397 397 396 395 395 395 395 395 395 395 395 395 395 395 395 394 394 394 394 393 393 392 392 392 392 392 391 391 391 391 391 391 391 391 391 391 391 391 391 391 391 391 391 391 391 391 391 391 391 391 391 391 391 391 391 391 391 391 391 391 391 391 391 391 391 391 391 391 391 391 391 392 392 392 393 393 393 393 393 393 393 393 393 393 393 393 393 393 393 393 393 393 393 393 393 393 393 393 393 393 393 393 393 393 394 394 394 394 394 394 394 394 394 394 394 394 394 394 395 395 395 395 395 395 395 395 395 395 395 395 395 395 395 395 395 395 395 395 395 395 395 395 395 396 396 396 396 396 396 396 396 396 396 396 396 396 396 396 396 396 396 396 396 396 396 396 396 396 396 396 396 396 396 396 396 396 396 396 396 396 395 395 395 395 395 395 395 395 395 395 395 394 394 394 394 394 394 394 394 395 395 395 396 396 396 396 396 396 396 395 396 396 396 395 395 395 396 395 395 395 396 396 396 396 396 396 396 396 396 396 396 396 396 396 396 396 396 396 396 396 396 396 396 396 396 396 396 396 396 396 396 396 396 396 397 397 399 400 400 400 401 401 402 402 403 403 404 404 404 404 404 404 404 403 402 402 402 401 400 399 399 398 397 396 395 395 395 395 395 395 395 395 395 395 395 395 395 395 395 395 395 395 395 395 395 395 395 395 395 395 395 395 395 395 395 395 395 394 394 394 394 393 393 393 392 392 392 391 391 391 391 391 390 390 390 390 390 390 390 390 390 390 390 390 390 390 390 390 390 390 390 390 390 390 390 390 390 390 390 390 390 390
284 284 284 284 284 284 284 284 284 284 284 284 284 284 284 284 284 283 283 283 283 283 283 282 281 280 279 279 279 279 279 279 278 278 278 278 278 278 278 278 278 278 278 278 278 278 278 278 278 278 547 547 547 547 547 547 547 547 547 547 547 547 547 260 260 260 260 261 261 261 261 261 261 261 261 261 261 263 263 263 263 263 263 264 264 265 266 266 266 267 267 268 269 270 270 270 271 271 271 272 272 272 273 273 274 274 274 274 275 275 275 275 275 276 276 276 277 277 277 277 277 278 278 278 278 279 279 279 279 279 280 280 280 280 281 288 299 299 299 300 300 300 301 302 303 304 304 305 305 305 305 305 306 306 306 306 306 306 306 306 306 307 307 308 308 309 309 310 311 312 313 314 315 316 317 318 319 320 320 320 321 322 323 324 325 326 327 328 328 328 328 328 328 329 329 330 331 331 331 332 332 333 333 334 334 334 334 334 334 334 334 334 334 334 334 334 334 334 334 334 334 334 334 333 333 333 333 333 333 332 332 332 332 332 332 332 331 331 331 331 331 331 331 331 331 331 331 331 331 330 330 330 330 330 330 330 330 330 330 330 330 330 330 330 330 330 330 330 330 330 330 330 330 334 334 334 335 335 335 335 335 335 335 335 335 335 335 335 385 386 386 386 386 386 386 386 387 387 386 386 386 386 386 386 386 386 386 386 386 386 386 386 386 386 386 386 387 387 387 387 387 387 387 387 387 387 388 389 389 390 391 391 392 392 393 393 394 394 394 395 395 395 396 396 396 396 396 396 396 396 396 396 397 397 397 397 397 397 397 397 397 397 397 397 397 397 397 397 397 397 397 397 397 397 397 397 397 397 397 397 397 397 397 397 397 397 397 396 395 395 395 395 394 394 394 394 394 394 394 394 393 393 393 393 393 393 392 392 392 392 392 391 391 391 391 391 391 391 391 391 391 391 391 391 391 391 391 391 391 391 391 391 391 391 391 391 391 391 391 391 391 391 391 391 391 391 391 391 391 391 391 391 391 391 391 392 392 393 393 393 394 394 394 394 394 394 394 394 394 394 394 394 394 394 394 394 394 394 394 394 394 394 394 394 394 394 394 394 394 394 394 394 394 394 394 394 394 394 394 394 394 394 394 395 395 395 395 395 395 395 395 395 395 395 395 395 395 395 395 395 395 395 395 395 395 395 395 395 396 396 396 396 396 396 396 396 396 396 396 396 396 396 396 396 396 396 396 396 396 396 396 396 396 396 396 396 396 396 396 396 396 396 396 396 396 395 395 395 395 395 395 395 395 395 395 395 394 394 394 395 395 395 395 395 396 397 397 398 398 398 398 398 398 398 397 398 398 398 397 397 396 397 396 396 396 396 396 396 396 396 396 396 396 396 396 396 396 396 396 396 396 396 396 396 397 397 397 397 397 397 397 397 397 397 397 397 397 397 397 398 398 399 400 400 400 401 402 402 403 404 404 404 404 404 404 404 404 404 404 403 403 402 402 401 400 399 398 397 396 395 395 395 395 395 395 395 395 395 395 395 395 395 395 395 395 395 395 395 395 395 395 395 395 395 395 395 395 395 395 395 395 395 394 394 394 394 393 393 393 392 392 392 391 391 391 391 391 390 390 390 390 390 390 390 390 390 390 390 390 390 390 390 390 390 390 390 390 390 390 390 390 390 390 390 390 390 390
284 284 284 284 284 284 284 284 284 284 284 284 284 284 284 284 284 284 284 283 283 283 283 282 281 280 279 279 279 279 279 279 278 278 278 278 278 278 278 278 278 278 278 278 278 278 278 278 278 278 547 547 547 547 547 547 547 547 547 547 547 547 547 547 547 547 547 261 261 261 261 261 261 261 261 261 261 262 262 262 262 262 262 263 263 264 265 266 266 267 267 268 269 270 270 270 271 271 271 272 272 272 273 273 274 274 274 274 275 275 275 275 275 276 276 276 277 277 277 277 277 277 277 277 277 278 278 278 278 278 278 278 278 278 279 288 301 301 301 302 302 302 303 303 304 304 304 305 305 305 305 305 306 306 306 306 306 306 306 306 306 306 307 307 307 308 309 310 311 312 313 314 315 316 317 318 318 319 319 320 321 322 323 324 325 326 327 328 328 328 328 328 328 329 329 330 331 331 331 332 332 333 333 334 334 334 334 334 334 334 334 334 334 334 334 334 334 334 334 334 334 334 334 333 333 333 333 333 333 332 332 332 332 332 332 332 331 331 331 331 331 331 331 331 331 331 331 331 331 330 330 330 330 330 330 330 330 330 330 330 330 330 330 330 330 330 330 330 330 330 330 330 330 334 334 334 335 335 335 335 335 335 335 335 335 335 335 335 385 386 386 386 386 386 386 386 387 387 384 384 384 384 384 384 384 384 385 385 385 385 385 385 385 385 385 385 386 386 386 386 386 386 386 386 386 387 388 389 389 390 391 391 392 392 393 393 394 394 394 395 395 395 396 396 396 396 396 396 396 396 396 396 397 397 397 397 397 397 397 397 397 397 397 397 397 397 397 397 397 397 397 397 397 397 397 397 397 397 397 397 397 397 397 397 396 396 396 396 395 395 395 395 394 394 393 393 393 393 393 393 393 393 393 393 393 393 392 392 392 392 392 391 391 391 391 391 391 391 391 391 391 391 391 391 391 391 391 391 391 391 391 391 391 391 391 391 391 391 391 391 391 391 391 391 391 391 391 391 391 391 391 391 391 391 391 392 392 393 393 393 394 394 394 394 394 394 394 394 394 394 394 394 394 394 394 394 394 394 394 394 394 394 394 394 394 394 394 394 394 394 394 394 394 394 394 394 394 394 394 394 394 394 394 395 395 395 395 395 395 395 395 395 395 395 395 395 395 395 395 395 395 395 395 395 395 395 395 395 396 396 396 396 396 396 396 396 396 396 396 396 396 396 396 396 396 396 396 396 396 396 396 396 396 396 396 396 396 396 396 396 396 396 396 396 396 395 395 395 395 395 395 395 395 395 395 395 395 395 395 396 396 396 396 397 398 399 400 401 402 402 402 402 402 402 401 402 402 402 401 401 399 399 397 397 397 397 396 396 396 396 396 396 396 396 396 396 396 396 396 396 396 396 396 396 397 397 397 397 398 398 398 398 398 398 398 398 398 398 398 399 399 399 400 400 400 401 402 402 403 404 404 404 404 404 404 404 404 404 404 403 403 402 402 401 400 399 398 397 396 395 395 395 395 395 395 395 395 395 395 395 395 395 395 395 395 395 395 395 395 395 395 395 395 395 395 395 395 395 395 395 395 395 394 394 394 394 393 393 393 392 392 391 391 391 390 390 390 389 389 389 389 389 389 389 389 389 389 389 389 389 389 389 389 389 389 389 389 389 389 389 389 389 389 389 389 389 389
